ply
format ascii 1.0
element vertex 1341
property float x
property float y
property float z
property uchar red
property uchar green
property uchar blue
end_header
0.028571 -0.036735 0.729531 0 255 0
0.036735 -0.036735 0.729409 0 255 0
0.044898 -0.036735 0.729287 0 255 0
0.053061 -0.036735 0.729165 0 255 0
0.061224 -0.036735 0.729043 0 255 0
0.069388 -0.036735 0.728921 0 255 0
0.077551 -0.036735 0.728799 0 255 0
0.085714 -0.036735 0.728677 0 255 0
0.093878 -0.036735 0.728555 0 255 0
0.102041 -0.036735 0.728433 0 255 0
0.110204 -0.036735 0.728311 0 255 0
0.118367 -0.036735 0.728189 0 255 0
0.126531 -0.036735 0.728067 0 255 0
0.134694 -0.036735 0.727945 0 255 0
0.142857 -0.036735 0.727823 0 255 0
0.151020 -0.036735 0.727701 0 255 0
0.159184 -0.036735 0.727579 0 255 0
0.167347 -0.036735 0.727457 0 255 0
0.175510 -0.036735 0.727335 0 255 0
0.183673 -0.036735 0.727213 0 255 0
0.191837 -0.036735 0.727091 0 255 0
0.200000 -0.036735 0.726969 0 255 0
-0.200000 -0.028571 0.729241 0 255 0
-0.191837 -0.028571 0.729119 0 255 0
-0.183673 -0.028571 0.728997 0 255 0
-0.175510 -0.028571 0.728875 0 255 0
-0.167347 -0.028571 0.728753 0 255 0
-0.159184 -0.028571 0.728631 0 255 0
-0.151020 -0.028571 0.728509 0 255 0
-0.142857 -0.028571 0.728387 0 255 0
-0.134694 -0.028571 0.728265 0 255 0
-0.126531 -0.028571 0.728143 0 255 0
-0.118367 -0.028571 0.728021 0 255 0
-0.110204 -0.028571 0.727899 0 255 0
-0.102041 -0.028571 0.727777 0 255 0
-0.093878 -0.028571 0.727655 0 255 0
-0.085714 -0.028571 0.727533 0 255 0
-0.077551 -0.028571 0.727411 0 255 0
-0.069388 -0.028571 0.727289 0 255 0
-0.061224 -0.028571 0.727167 0 255 0
-0.053061 -0.028571 0.727045 0 255 0
-0.044898 -0.028571 0.726923 0 255 0
-0.036735 -0.028571 0.726801 0 255 0
-0.028571 -0.028571 0.726679 0 255 0
-0.020408 -0.028571 0.726557 0 255 0
-0.012245 -0.028571 0.726435 0 255 0
-0.004082 -0.028571 0.726313 0 255 0
0.004082 -0.028571 0.726191 0 255 0
0.012245 -0.028571 0.726069 0 255 0
0.020408 -0.028571 0.725947 0 255 0
0.028571 -0.028571 0.725825 0 255 0
0.036735 -0.028571 0.725703 0 255 0
0.044898 -0.028571 0.725581 0 255 0
0.053061 -0.028571 0.725459 0 255 0
0.061224 -0.028571 0.725337 0 255 0
0.069388 -0.028571 0.725215 0 255 0
0.077551 -0.028571 0.725093 0 255 0
0.085714 -0.028571 0.724971 0 255 0
0.093878 -0.028571 0.724849 0 255 0
0.102041 -0.028571 0.724727 0 255 0
0.110204 -0.028571 0.724605 0 255 0
0.118367 -0.028571 0.724483 0 255 0
0.126531 -0.028571 0.724361 0 255 0
0.134694 -0.028571 0.724239 0 255 0
0.142857 -0.028571 0.724117 0 255 0
0.151020 -0.028571 0.723995 0 255 0
0.159184 -0.028571 0.723873 0 255 0
0.167347 -0.028571 0.723751 0 255 0
0.175510 -0.028571 0.723629 0 255 0
0.183673 -0.028571 0.723507 0 255 0
0.191837 -0.028571 0.723385 0 255 0
0.200000 -0.028571 0.723263 0 255 0
-0.200000 -0.020408 0.725535 0 255 0
-0.191837 -0.020408 0.725413 0 255 0
-0.183673 -0.020408 0.725291 0 255 0
-0.175510 -0.020408 0.725169 0 255 0
-0.167347 -0.020408 0.725047 0 255 0
-0.159184 -0.020408 0.724925 0 255 0
-0.151020 -0.020408 0.724803 0 255 0
-0.142857 -0.020408 0.724681 0 255 0
-0.134694 -0.020408 0.724559 0 255 0
-0.126531 -0.020408 0.724437 0 255 0
-0.118367 -0.020408 0.724315 0 255 0
-0.110204 -0.020408 0.724193 0 255 0
-0.102041 -0.020408 0.724071 0 255 0
-0.093878 -0.020408 0.723949 0 255 0
-0.085714 -0.020408 0.723827 0 255 0
-0.077551 -0.020408 0.723705 0 255 0
-0.069388 -0.020408 0.723583 0 255 0
-0.061224 -0.020408 0.723461 0 255 0
-0.053061 -0.020408 0.723339 0 255 0
-0.044898 -0.020408 0.723217 0 255 0
-0.036735 -0.020408 0.723095 0 255 0
-0.028571 -0.020408 0.722973 0 255 0
-0.020408 -0.020408 0.722851 0 255 0
-0.012245 -0.020408 0.722729 0 255 0
-0.004082 -0.020408 0.722607 0 255 0
0.004082 -0.020408 0.722485 0 255 0
0.012245 -0.020408 0.722363 0 255 0
0.020408 -0.020408 0.722241 0 255 0
0.028571 -0.020408 0.722119 0 255 0
0.036735 -0.020408 0.721997 0 255 0
0.044898 -0.020408 0.721875 0 255 0
0.053061 -0.020408 0.721753 0 255 0
0.061224 -0.020408 0.721631 0 255 0
0.069388 -0.020408 0.721509 0 255 0
0.077551 -0.020408 0.721387 0 255 0
0.085714 -0.020408 0.721265 0 255 0
0.093878 -0.020408 0.721143 0 255 0
0.102041 -0.020408 0.721021 0 255 0
0.110204 -0.020408 0.720899 0 255 0
0.118367 -0.020408 0.720777 0 255 0
0.126531 -0.020408 0.720655 0 255 0
0.134694 -0.020408 0.720533 0 255 0
0.142857 -0.020408 0.720411 0 255 0
0.151020 -0.020408 0.720289 0 255 0
0.159184 -0.020408 0.720167 0 255 0
0.167347 -0.020408 0.720045 0 255 0
0.175510 -0.020408 0.719923 0 255 0
0.183673 -0.020408 0.719801 0 255 0
0.191837 -0.020408 0.719679 0 255 0
0.200000 -0.020408 0.719557 0 255 0
-0.200000 -0.012245 0.721829 0 255 0
-0.191837 -0.012245 0.721707 0 255 0
-0.183673 -0.012245 0.721585 0 255 0
-0.175510 -0.012245 0.721463 0 255 0
-0.167347 -0.012245 0.721341 0 255 0
-0.159184 -0.012245 0.721219 0 255 0
-0.151020 -0.012245 0.721097 0 255 0
-0.142857 -0.012245 0.720975 0 255 0
-0.134694 -0.012245 0.720853 0 255 0
-0.126531 -0.012245 0.720731 0 255 0
-0.118367 -0.012245 0.720609 0 255 0
-0.110204 -0.012245 0.720487 0 255 0
-0.102041 -0.012245 0.720365 0 255 0
-0.093878 -0.012245 0.720243 0 255 0
-0.085714 -0.012245 0.720121 0 255 0
-0.077551 -0.012245 0.719999 0 255 0
-0.069388 -0.012245 0.719877 0 255 0
-0.061224 -0.012245 0.719755 0 255 0
-0.053061 -0.012245 0.719633 0 255 0
-0.044898 -0.012245 0.719511 0 255 0
-0.036735 -0.012245 0.719389 0 255 0
-0.028571 -0.012245 0.719267 0 255 0
-0.020408 -0.012245 0.719145 0 255 0
-0.012245 -0.012245 0.719023 0 255 0
-0.004082 -0.012245 0.718901 0 255 0
0.004082 -0.012245 0.718779 0 255 0
0.012245 -0.012245 0.718657 0 255 0
0.020408 -0.012245 0.718535 0 255 0
0.028571 -0.012245 0.718413 0 255 0
0.036735 -0.012245 0.718291 0 255 0
0.044898 -0.012245 0.718169 0 255 0
0.053061 -0.012245 0.718047 0 255 0
0.061224 -0.012245 0.717925 0 255 0
0.069388 -0.012245 0.717803 0 255 0
0.077551 -0.012245 0.717681 0 255 0
0.085714 -0.012245 0.717559 0 255 0
0.093878 -0.012245 0.717437 0 255 0
0.102041 -0.012245 0.717315 0 255 0
0.110204 -0.012245 0.717193 0 255 0
0.118367 -0.012245 0.717071 0 255 0
0.126531 -0.012245 0.716949 0 255 0
0.134694 -0.012245 0.716827 0 255 0
0.142857 -0.012245 0.716705 0 255 0
0.151020 -0.012245 0.716583 0 255 0
0.159184 -0.012245 0.716461 0 255 0
0.167347 -0.012245 0.716339 0 255 0
0.175510 -0.012245 0.716217 0 255 0
0.183673 -0.012245 0.716095 0 255 0
0.191837 -0.012245 0.715973 0 255 0
0.200000 -0.012245 0.715851 0 255 0
-0.200000 -0.004082 0.718123 0 255 0
-0.191837 -0.004082 0.718001 0 255 0
-0.183673 -0.004082 0.717879 0 255 0
-0.175510 -0.004082 0.717757 0 255 0
-0.167347 -0.004082 0.717635 0 255 0
-0.159184 -0.004082 0.717513 0 255 0
-0.151020 -0.004082 0.717391 0 255 0
-0.142857 -0.004082 0.717269 0 255 0
-0.134694 -0.004082 0.717147 0 255 0
-0.126531 -0.004082 0.717025 0 255 0
-0.118367 -0.004082 0.716903 0 255 0
-0.110204 -0.004082 0.716781 0 255 0
-0.102041 -0.004082 0.716659 0 255 0
-0.093878 -0.004082 0.716537 0 255 0
-0.085714 -0.004082 0.716415 0 255 0
-0.077551 -0.004082 0.716293 0 255 0
-0.069388 -0.004082 0.716171 0 255 0
-0.061224 -0.004082 0.716049 0 255 0
-0.053061 -0.004082 0.715927 0 255 0
-0.044898 -0.004082 0.715805 0 255 0
-0.036735 -0.004082 0.715683 0 255 0
-0.028571 -0.004082 0.715561 0 255 0
-0.020408 -0.004082 0.715439 0 255 0
-0.012245 -0.004082 0.715317 0 255 0
-0.004082 -0.004082 0.715195 0 255 0
0.004082 -0.004082 0.715073 0 255 0
0.012245 -0.004082 0.714951 0 255 0
0.020408 -0.004082 0.714829 0 255 0
0.028571 -0.004082 0.714707 0 255 0
0.036735 -0.004082 0.714585 0 255 0
0.044898 -0.004082 0.714463 0 255 0
0.053061 -0.004082 0.714341 0 255 0
0.061224 -0.004082 0.714219 0 255 0
0.069388 -0.004082 0.714097 0 255 0
0.077551 -0.004082 0.713975 0 255 0
0.085714 -0.004082 0.713853 0 255 0
0.093878 -0.004082 0.713731 0 255 0
0.102041 -0.004082 0.713609 0 255 0
0.110204 -0.004082 0.713487 0 255 0
0.118367 -0.004082 0.713365 0 255 0
0.126531 -0.004082 0.713243 0 255 0
0.134694 -0.004082 0.713121 0 255 0
0.142857 -0.004082 0.712999 0 255 0
0.151020 -0.004082 0.712877 0 255 0
0.159184 -0.004082 0.712755 0 255 0
0.167347 -0.004082 0.712633 0 255 0
0.175510 -0.004082 0.712511 0 255 0
0.183673 -0.004082 0.712389 0 255 0
0.191837 -0.004082 0.712267 0 255 0
0.200000 -0.004082 0.712145 0 255 0
-0.200000 0.004082 0.714416 0 255 0
-0.191837 0.004082 0.714294 0 255 0
-0.183673 0.004082 0.714172 0 255 0
-0.175510 0.004082 0.714050 0 255 0
-0.167347 0.004082 0.713928 0 255 0
-0.159184 0.004082 0.713806 0 255 0
-0.151020 0.004082 0.713684 0 255 0
-0.142857 0.004082 0.713562 0 255 0
-0.134694 0.004082 0.713440 0 255 0
-0.126531 0.004082 0.713318 0 255 0
-0.118367 0.004082 0.713196 0 255 0
-0.110204 0.004082 0.713074 0 255 0
-0.102041 0.004082 0.712952 0 255 0
-0.093878 0.004082 0.712830 0 255 0
-0.085714 0.004082 0.712708 0 255 0
-0.077551 0.004082 0.712586 0 255 0
-0.069388 0.004082 0.712464 0 255 0
-0.061224 0.004082 0.712342 0 255 0
-0.053061 0.004082 0.712220 0 255 0
-0.044898 0.004082 0.712098 0 255 0
-0.036735 0.004082 0.711976 0 255 0
-0.028571 0.004082 0.711854 0 255 0
-0.020408 0.004082 0.711732 0 255 0
-0.012245 0.004082 0.711610 0 255 0
-0.004082 0.004082 0.711488 0 255 0
0.004082 0.004082 0.711366 0 255 0
0.012245 0.004082 0.711244 0 255 0
0.020408 0.004082 0.711122 0 255 0
0.028571 0.004082 0.711000 0 255 0
0.036735 0.004082 0.710878 0 255 0
0.044898 0.004082 0.710756 0 255 0
0.053061 0.004082 0.710634 0 255 0
0.061224 0.004082 0.710512 0 255 0
0.069388 0.004082 0.710390 0 255 0
0.077551 0.004082 0.710268 0 255 0
0.085714 0.004082 0.710146 0 255 0
0.093878 0.004082 0.710024 0 255 0
0.102041 0.004082 0.709902 0 255 0
0.110204 0.004082 0.709780 0 255 0
0.118367 0.004082 0.709658 0 255 0
0.126531 0.004082 0.709536 0 255 0
0.134694 0.004082 0.709414 0 255 0
0.142857 0.004082 0.709292 0 255 0
0.151020 0.004082 0.709170 0 255 0
0.159184 0.004082 0.709048 0 255 0
0.167347 0.004082 0.708926 0 255 0
0.175510 0.004082 0.708804 0 255 0
0.183673 0.004082 0.708682 0 255 0
0.191837 0.004082 0.708560 0 255 0
0.200000 0.004082 0.708438 0 255 0
-0.200000 0.012245 0.710710 0 255 0
-0.191837 0.012245 0.710588 0 255 0
-0.183673 0.012245 0.710466 0 255 0
-0.175510 0.012245 0.710344 0 255 0
-0.167347 0.012245 0.710222 0 255 0
-0.159184 0.012245 0.710100 0 255 0
-0.151020 0.012245 0.709978 0 255 0
-0.142857 0.012245 0.709856 0 255 0
-0.134694 0.012245 0.709734 0 255 0
-0.126531 0.012245 0.709612 0 255 0
-0.118367 0.012245 0.709490 0 255 0
-0.110204 0.012245 0.709368 0 255 0
-0.102041 0.012245 0.709246 0 255 0
-0.093878 0.012245 0.709124 0 255 0
-0.085714 0.012245 0.709002 0 255 0
-0.077551 0.012245 0.708880 0 255 0
-0.069388 0.012245 0.708758 0 255 0
-0.061224 0.012245 0.708636 0 255 0
-0.053061 0.012245 0.708514 0 255 0
-0.044898 0.012245 0.708392 0 255 0
-0.036735 0.012245 0.708270 0 255 0
-0.028571 0.012245 0.708148 0 255 0
-0.020408 0.012245 0.708026 0 255 0
-0.012245 0.012245 0.707904 0 255 0
-0.004082 0.012245 0.707782 0 255 0
0.004082 0.012245 0.707660 0 255 0
0.012245 0.012245 0.707538 0 255 0
0.020408 0.012245 0.707416 0 255 0
0.028571 0.012245 0.707294 0 255 0
0.036735 0.012245 0.707172 0 255 0
0.044898 0.012245 0.707050 0 255 0
0.053061 0.012245 0.706928 0 255 0
0.061224 0.012245 0.706806 0 255 0
0.069388 0.012245 0.706684 0 255 0
0.077551 0.012245 0.706562 0 255 0
0.085714 0.012245 0.706440 0 255 0
0.093878 0.012245 0.706318 0 255 0
0.102041 0.012245 0.706196 0 255 0
0.110204 0.012245 0.706074 0 255 0
0.118367 0.012245 0.705952 0 255 0
0.126531 0.012245 0.705830 0 255 0
0.134694 0.012245 0.705708 0 255 0
0.142857 0.012245 0.705586 0 255 0
0.151020 0.012245 0.705464 0 255 0
0.159184 0.012245 0.705342 0 255 0
0.167347 0.012245 0.705220 0 255 0
0.175510 0.012245 0.705098 0 255 0
0.183673 0.012245 0.704976 0 255 0
0.191837 0.012245 0.704854 0 255 0
0.200000 0.012245 0.704732 0 255 0
-0.200000 0.020408 0.707004 0 255 0
-0.191837 0.020408 0.706882 0 255 0
-0.183673 0.020408 0.706760 0 255 0
-0.175510 0.020408 0.706638 0 255 0
-0.167347 0.020408 0.706516 0 255 0
-0.159184 0.020408 0.706394 0 255 0
-0.151020 0.020408 0.706272 0 255 0
-0.142857 0.020408 0.706150 0 255 0
-0.134694 0.020408 0.706028 0 255 0
-0.126531 0.020408 0.705906 0 255 0
-0.118367 0.020408 0.705784 0 255 0
-0.110204 0.020408 0.705662 0 255 0
-0.102041 0.020408 0.705540 0 255 0
-0.093878 0.020408 0.705418 0 255 0
-0.085714 0.020408 0.705296 0 255 0
-0.077551 0.020408 0.705174 0 255 0
-0.069388 0.020408 0.705052 0 255 0
-0.061224 0.020408 0.704930 0 255 0
-0.053061 0.020408 0.704808 0 255 0
-0.044898 0.020408 0.704686 0 255 0
-0.036735 0.020408 0.704564 0 255 0
-0.028571 0.020408 0.704442 0 255 0
-0.020408 0.020408 0.704320 0 255 0
-0.012245 0.020408 0.704198 0 255 0
-0.004082 0.020408 0.704076 0 255 0
0.004082 0.020408 0.703954 0 255 0
0.012245 0.020408 0.703832 0 255 0
0.020408 0.020408 0.703710 0 255 0
0.028571 0.020408 0.703588 0 255 0
0.036735 0.020408 0.703466 0 255 0
0.044898 0.020408 0.703344 0 255 0
0.053061 0.020408 0.703222 0 255 0
0.061224 0.020408 0.703100 0 255 0
0.069388 0.020408 0.702978 0 255 0
0.077551 0.020408 0.702856 0 255 0
0.085714 0.020408 0.702734 0 255 0
0.093878 0.020408 0.702612 0 255 0
0.102041 0.020408 0.702490 0 255 0
0.110204 0.020408 0.702368 0 255 0
0.118367 0.020408 0.702246 0 255 0
0.126531 0.020408 0.702124 0 255 0
0.134694 0.020408 0.702002 0 255 0
0.142857 0.020408 0.701880 0 255 0
0.151020 0.020408 0.701758 0 255 0
0.159184 0.020408 0.701636 0 255 0
0.167347 0.020408 0.701514 0 255 0
0.175510 0.020408 0.701392 0 255 0
0.183673 0.020408 0.701270 0 255 0
0.191837 0.020408 0.701148 0 255 0
0.200000 0.020408 0.701026 0 255 0
-0.200000 0.028571 0.703298 0 255 0
-0.191837 0.028571 0.703176 0 255 0
-0.183673 0.028571 0.703054 0 255 0
-0.175510 0.028571 0.702932 0 255 0
-0.167347 0.028571 0.702810 0 255 0
-0.159184 0.028571 0.702688 0 255 0
-0.151020 0.028571 0.702566 0 255 0
-0.142857 0.028571 0.702444 0 255 0
-0.134694 0.028571 0.702322 0 255 0
-0.126531 0.028571 0.702200 0 255 0
-0.118367 0.028571 0.702078 0 255 0
-0.110204 0.028571 0.701956 0 255 0
-0.102041 0.028571 0.701834 0 255 0
-0.093878 0.028571 0.701712 0 255 0
-0.085714 0.028571 0.701590 0 255 0
-0.077551 0.028571 0.701468 0 255 0
-0.069388 0.028571 0.701346 0 255 0
-0.061224 0.028571 0.701224 0 255 0
-0.053061 0.028571 0.701102 0 255 0
-0.044898 0.028571 0.700980 0 255 0
-0.036735 0.028571 0.700858 0 255 0
-0.028571 0.028571 0.700736 0 255 0
-0.020408 0.028571 0.700614 0 255 0
-0.012245 0.028571 0.700492 0 255 0
-0.004082 0.028571 0.700370 0 255 0
0.004082 0.028571 0.700248 0 255 0
0.012245 0.028571 0.700126 0 255 0
0.020408 0.028571 0.700004 0 255 0
0.028571 0.028571 0.699882 0 255 0
0.036735 0.028571 0.699760 0 255 0
0.044898 0.028571 0.699638 0 255 0
0.053061 0.028571 0.699516 0 255 0
0.061224 0.028571 0.699394 0 255 0
0.069388 0.028571 0.699272 0 255 0
0.077551 0.028571 0.699150 0 255 0
0.085714 0.028571 0.699028 0 255 0
0.093878 0.028571 0.698906 0 255 0
0.102041 0.028571 0.698784 0 255 0
0.110204 0.028571 0.698662 0 255 0
0.118367 0.028571 0.698540 0 255 0
0.126531 0.028571 0.698418 0 255 0
0.134694 0.028571 0.698296 0 255 0
0.142857 0.028571 0.698174 0 255 0
0.151020 0.028571 0.698052 0 255 0
0.159184 0.028571 0.697930 0 255 0
0.167347 0.028571 0.697808 0 255 0
0.175510 0.028571 0.697686 0 255 0
0.183673 0.028571 0.697564 0 255 0
0.191837 0.028571 0.697442 0 255 0
0.200000 0.028571 0.697320 0 255 0
-0.200000 0.036735 0.699592 0 255 0
-0.191837 0.036735 0.699470 0 255 0
-0.183673 0.036735 0.699348 0 255 0
-0.175510 0.036735 0.699226 0 255 0
-0.167347 0.036735 0.699104 0 255 0
-0.159184 0.036735 0.698982 0 255 0
-0.151020 0.036735 0.698860 0 255 0
-0.142857 0.036735 0.698738 0 255 0
-0.134694 0.036735 0.698616 0 255 0
-0.126531 0.036735 0.698494 0 255 0
-0.118367 0.036735 0.698372 0 255 0
-0.110204 0.036735 0.698250 0 255 0
-0.102041 0.036735 0.698128 0 255 0
-0.093878 0.036735 0.698006 0 255 0
-0.085714 0.036735 0.697884 0 255 0
-0.077551 0.036735 0.697762 0 255 0
-0.069388 0.036735 0.697640 0 255 0
-0.061224 0.036735 0.697518 0 255 0
-0.053061 0.036735 0.697396 0 255 0
-0.044898 0.036735 0.697274 0 255 0
-0.036735 0.036735 0.697152 0 255 0
-0.028571 0.036735 0.697030 0 255 0
-0.020408 0.036735 0.696908 0 255 0
-0.012245 0.036735 0.696786 0 255 0
-0.004082 0.036735 0.696664 0 255 0
0.004082 0.036735 0.696542 0 255 0
0.012245 0.036735 0.696420 0 255 0
0.020408 0.036735 0.696298 0 255 0
0.028571 0.036735 0.696176 0 255 0
0.036735 0.036735 0.696054 0 255 0
0.044898 0.036735 0.695932 0 255 0
0.053061 0.036735 0.695810 0 255 0
0.061224 0.036735 0.695688 0 255 0
0.069388 0.036735 0.695566 0 255 0
0.077551 0.036735 0.695444 0 255 0
0.085714 0.036735 0.695322 0 255 0
0.093878 0.036735 0.695200 0 255 0
0.102041 0.036735 0.695078 0 255 0
0.110204 0.036735 0.694956 0 255 0
0.118367 0.036735 0.694834 0 255 0
0.126531 0.036735 0.694712 0 255 0
0.134694 0.036735 0.694590 0 255 0
0.142857 0.036735 0.694468 0 255 0
0.151020 0.036735 0.694346 0 255 0
0.159184 0.036735 0.694224 0 255 0
0.167347 0.036735 0.694102 0 255 0
0.175510 0.036735 0.693980 0 255 0
0.183673 0.036735 0.693858 0 255 0
0.191837 0.036735 0.693736 0 255 0
0.200000 0.036735 0.693614 0 255 0
-0.200000 0.044898 0.695885 0 255 0
-0.191837 0.044898 0.695763 0 255 0
-0.183673 0.044898 0.695641 0 255 0
-0.175510 0.044898 0.695519 0 255 0
-0.167347 0.044898 0.695397 0 255 0
-0.159184 0.044898 0.695275 0 255 0
-0.151020 0.044898 0.695153 0 255 0
-0.142857 0.044898 0.695031 0 255 0
-0.134694 0.044898 0.694909 0 255 0
-0.126531 0.044898 0.694787 0 255 0
-0.118367 0.044898 0.694665 0 255 0
-0.110204 0.044898 0.694543 0 255 0
-0.102041 0.044898 0.694421 0 255 0
-0.093878 0.044898 0.694299 0 255 0
-0.085714 0.044898 0.694177 0 255 0
-0.077551 0.044898 0.694055 0 255 0
-0.069388 0.044898 0.693933 0 255 0
-0.061224 0.044898 0.693811 0 255 0
-0.053061 0.044898 0.693689 0 255 0
-0.044898 0.044898 0.693567 0 255 0
-0.036735 0.044898 0.693445 0 255 0
-0.028571 0.044898 0.693323 0 255 0
-0.020408 0.044898 0.693201 0 255 0
-0.012245 0.044898 0.693079 0 255 0
-0.004082 0.044898 0.692957 0 255 0
0.004082 0.044898 0.692835 0 255 0
0.012245 0.044898 0.692713 0 255 0
0.020408 0.044898 0.692591 0 255 0
0.028571 0.044898 0.692469 0 255 0
0.036735 0.044898 0.692347 0 255 0
0.044898 0.044898 0.692225 0 255 0
0.053061 0.044898 0.692103 0 255 0
0.061224 0.044898 0.691981 0 255 0
0.069388 0.044898 0.691859 0 255 0
0.077551 0.044898 0.691737 0 255 0
0.085714 0.044898 0.691615 0 255 0
0.093878 0.044898 0.691493 0 255 0
0.102041 0.044898 0.691371 0 255 0
0.110204 0.044898 0.691249 0 255 0
0.118367 0.044898 0.691127 0 255 0
0.126531 0.044898 0.691005 0 255 0
0.134694 0.044898 0.690883 0 255 0
0.142857 0.044898 0.690761 0 255 0
0.151020 0.044898 0.690639 0 255 0
0.159184 0.044898 0.690517 0 255 0
0.167347 0.044898 0.690395 0 255 0
0.175510 0.044898 0.690273 0 255 0
0.183673 0.044898 0.690151 0 255 0
0.191837 0.044898 0.690029 0 255 0
0.200000 0.044898 0.689907 0 255 0
-0.200000 0.053061 0.692179 0 255 0
-0.191837 0.053061 0.692057 0 255 0
-0.183673 0.053061 0.691935 0 255 0
-0.175510 0.053061 0.691813 0 255 0
-0.167347 0.053061 0.691691 0 255 0
-0.159184 0.053061 0.691569 0 255 0
-0.151020 0.053061 0.691447 0 255 0
-0.142857 0.053061 0.691325 0 255 0
-0.134694 0.053061 0.691203 0 255 0
-0.126531 0.053061 0.691081 0 255 0
-0.118367 0.053061 0.690959 0 255 0
-0.110204 0.053061 0.690837 0 255 0
-0.102041 0.053061 0.690715 0 255 0
-0.093878 0.053061 0.690593 0 255 0
-0.085714 0.053061 0.690471 0 255 0
-0.077551 0.053061 0.690349 0 255 0
-0.069388 0.053061 0.690227 0 255 0
-0.061224 0.053061 0.690105 0 255 0
-0.053061 0.053061 0.689983 0 255 0
-0.044898 0.053061 0.689861 0 255 0
-0.036735 0.053061 0.689739 0 255 0
-0.028571 0.053061 0.689617 0 255 0
-0.020408 0.053061 0.689495 0 255 0
-0.012245 0.053061 0.689373 0 255 0
-0.004082 0.053061 0.689251 0 255 0
0.004082 0.053061 0.689129 0 255 0
0.012245 0.053061 0.689007 0 255 0
0.020408 0.053061 0.688885 0 255 0
0.028571 0.053061 0.688763 0 255 0
0.036735 0.053061 0.688641 0 255 0
0.044898 0.053061 0.688519 0 255 0
0.053061 0.053061 0.688397 0 255 0
0.061224 0.053061 0.688275 0 255 0
0.069388 0.053061 0.688153 0 255 0
0.077551 0.053061 0.688031 0 255 0
0.085714 0.053061 0.687909 0 255 0
0.093878 0.053061 0.687787 0 255 0
0.102041 0.053061 0.687665 0 255 0
0.110204 0.053061 0.687543 0 255 0
0.118367 0.053061 0.687421 0 255 0
0.126531 0.053061 0.687299 0 255 0
0.134694 0.053061 0.687177 0 255 0
0.142857 0.053061 0.687055 0 255 0
0.151020 0.053061 0.686933 0 255 0
0.159184 0.053061 0.686811 0 255 0
0.167347 0.053061 0.686689 0 255 0
0.175510 0.053061 0.686567 0 255 0
0.183673 0.053061 0.686445 0 255 0
0.191837 0.053061 0.686323 0 255 0
0.200000 0.053061 0.686201 0 255 0
-0.200000 0.061224 0.688473 0 255 0
-0.191837 0.061224 0.688351 0 255 0
-0.183673 0.061224 0.688229 0 255 0
-0.175510 0.061224 0.688107 0 255 0
-0.167347 0.061224 0.687985 0 255 0
-0.159184 0.061224 0.687863 0 255 0
-0.151020 0.061224 0.687741 0 255 0
-0.142857 0.061224 0.687619 0 255 0
-0.134694 0.061224 0.687497 0 255 0
-0.126531 0.061224 0.687375 0 255 0
-0.118367 0.061224 0.687253 0 255 0
-0.110204 0.061224 0.687131 0 255 0
-0.102041 0.061224 0.687009 0 255 0
-0.093878 0.061224 0.686887 0 255 0
-0.085714 0.061224 0.686765 0 255 0
-0.077551 0.061224 0.686643 0 255 0
-0.069388 0.061224 0.686521 0 255 0
-0.061224 0.061224 0.686399 0 255 0
-0.053061 0.061224 0.686277 0 255 0
-0.044898 0.061224 0.686155 0 255 0
-0.036735 0.061224 0.686033 0 255 0
-0.028571 0.061224 0.685911 0 255 0
-0.020408 0.061224 0.685789 0 255 0
-0.012245 0.061224 0.685667 0 255 0
-0.004082 0.061224 0.685545 0 255 0
0.004082 0.061224 0.685423 0 255 0
0.012245 0.061224 0.685301 0 255 0
0.020408 0.061224 0.685179 0 255 0
0.028571 0.061224 0.685057 0 255 0
0.036735 0.061224 0.684935 0 255 0
0.044898 0.061224 0.684813 0 255 0
0.053061 0.061224 0.684691 0 255 0
0.061224 0.061224 0.684569 0 255 0
0.069388 0.061224 0.684447 0 255 0
0.077551 0.061224 0.684325 0 255 0
0.085714 0.061224 0.684203 0 255 0
0.093878 0.061224 0.684081 0 255 0
0.102041 0.061224 0.683959 0 255 0
0.110204 0.061224 0.683837 0 255 0
0.118367 0.061224 0.683715 0 255 0
0.126531 0.061224 0.683593 0 255 0
0.134694 0.061224 0.683471 0 255 0
0.142857 0.061224 0.683349 0 255 0
0.151020 0.061224 0.683227 0 255 0
0.159184 0.061224 0.683105 0 255 0
0.167347 0.061224 0.682983 0 255 0
0.175510 0.061224 0.682861 0 255 0
0.183673 0.061224 0.682739 0 255 0
0.191837 0.061224 0.682617 0 255 0
0.200000 0.061224 0.682495 0 255 0
-0.200000 0.069388 0.684767 0 255 0
-0.191837 0.069388 0.684645 0 255 0
-0.183673 0.069388 0.684523 0 255 0
-0.175510 0.069388 0.684401 0 255 0
-0.167347 0.069388 0.684279 0 255 0
-0.159184 0.069388 0.684157 0 255 0
-0.151020 0.069388 0.684035 0 255 0
-0.142857 0.069388 0.683913 0 255 0
-0.134694 0.069388 0.683791 0 255 0
-0.126531 0.069388 0.683669 0 255 0
-0.118367 0.069388 0.683547 0 255 0
-0.110204 0.069388 0.683425 0 255 0
-0.102041 0.069388 0.683303 0 255 0
-0.093878 0.069388 0.683181 0 255 0
-0.085714 0.069388 0.683059 0 255 0
-0.077551 0.069388 0.682937 0 255 0
-0.069388 0.069388 0.682815 0 255 0
-0.061224 0.069388 0.682693 0 255 0
-0.053061 0.069388 0.682571 0 255 0
-0.044898 0.069388 0.682449 0 255 0
-0.036735 0.069388 0.682327 0 255 0
-0.028571 0.069388 0.682205 0 255 0
-0.020408 0.069388 0.682083 0 255 0
-0.012245 0.069388 0.681961 0 255 0
-0.004082 0.069388 0.681839 0 255 0
0.004082 0.069388 0.681717 0 255 0
0.012245 0.069388 0.681595 0 255 0
0.020408 0.069388 0.681473 0 255 0
0.028571 0.069388 0.681351 0 255 0
0.036735 0.069388 0.681229 0 255 0
0.044898 0.069388 0.681107 0 255 0
0.053061 0.069388 0.680985 0 255 0
0.061224 0.069388 0.680863 0 255 0
0.069388 0.069388 0.680741 0 255 0
0.077551 0.069388 0.680619 0 255 0
0.085714 0.069388 0.680497 0 255 0
0.093878 0.069388 0.680375 0 255 0
0.102041 0.069388 0.680253 0 255 0
0.110204 0.069388 0.680131 0 255 0
0.118367 0.069388 0.680009 0 255 0
0.126531 0.069388 0.679887 0 255 0
0.134694 0.069388 0.679765 0 255 0
0.142857 0.069388 0.679643 0 255 0
0.151020 0.069388 0.679521 0 255 0
0.159184 0.069388 0.679399 0 255 0
0.167347 0.069388 0.679277 0 255 0
0.175510 0.069388 0.679155 0 255 0
0.183673 0.069388 0.679033 0 255 0
0.191837 0.069388 0.678911 0 255 0
0.200000 0.069388 0.678789 0 255 0
-0.200000 0.077551 0.681061 0 255 0
-0.191837 0.077551 0.680939 0 255 0
-0.183673 0.077551 0.680817 0 255 0
-0.175510 0.077551 0.680695 0 255 0
-0.167347 0.077551 0.680573 0 255 0
-0.159184 0.077551 0.680451 0 255 0
-0.151020 0.077551 0.680329 0 255 0
-0.142857 0.077551 0.680207 0 255 0
-0.134694 0.077551 0.680085 0 255 0
-0.126531 0.077551 0.679963 0 255 0
-0.118367 0.077551 0.679841 0 255 0
-0.110204 0.077551 0.679719 0 255 0
-0.102041 0.077551 0.679597 0 255 0
-0.093878 0.077551 0.679475 0 255 0
-0.085714 0.077551 0.679353 0 255 0
-0.077551 0.077551 0.679231 0 255 0
-0.069388 0.077551 0.679109 0 255 0
-0.061224 0.077551 0.678987 0 255 0
-0.053061 0.077551 0.678865 0 255 0
-0.044898 0.077551 0.678743 0 255 0
-0.036735 0.077551 0.678621 0 255 0
-0.028571 0.077551 0.678499 0 255 0
-0.020408 0.077551 0.678377 0 255 0
-0.012245 0.077551 0.678255 0 255 0
-0.004082 0.077551 0.678133 0 255 0
0.004082 0.077551 0.678011 0 255 0
0.012245 0.077551 0.677889 0 255 0
0.020408 0.077551 0.677767 0 255 0
0.028571 0.077551 0.677645 0 255 0
0.036735 0.077551 0.677523 0 255 0
0.044898 0.077551 0.677401 0 255 0
0.053061 0.077551 0.677279 0 255 0
0.061224 0.077551 0.677157 0 255 0
0.069388 0.077551 0.677035 0 255 0
0.077551 0.077551 0.676913 0 255 0
0.085714 0.077551 0.676791 0 255 0
0.093878 0.077551 0.676669 0 255 0
0.102041 0.077551 0.676547 0 255 0
0.110204 0.077551 0.676425 0 255 0
0.118367 0.077551 0.676303 0 255 0
0.126531 0.077551 0.676181 0 255 0
0.134694 0.077551 0.676059 0 255 0
0.142857 0.077551 0.675937 0 255 0
0.151020 0.077551 0.675815 0 255 0
0.159184 0.077551 0.675693 0 255 0
0.167347 0.077551 0.675571 0 255 0
0.175510 0.077551 0.675449 0 255 0
0.183673 0.077551 0.675327 0 255 0
0.191837 0.077551 0.675205 0 255 0
0.200000 0.077551 0.675083 0 255 0
-0.200000 0.085714 0.677354 0 255 0
-0.191837 0.085714 0.677232 0 255 0
-0.183673 0.085714 0.677110 0 255 0
-0.175510 0.085714 0.676988 0 255 0
-0.167347 0.085714 0.676866 0 255 0
-0.159184 0.085714 0.676744 0 255 0
-0.151020 0.085714 0.676622 0 255 0
-0.142857 0.085714 0.676500 0 255 0
-0.134694 0.085714 0.676378 0 255 0
-0.126531 0.085714 0.676256 0 255 0
-0.118367 0.085714 0.676134 0 255 0
-0.110204 0.085714 0.676012 0 255 0
-0.102041 0.085714 0.675890 0 255 0
-0.093878 0.085714 0.675768 0 255 0
-0.085714 0.085714 0.675646 0 255 0
-0.077551 0.085714 0.675524 0 255 0
-0.069388 0.085714 0.675402 0 255 0
-0.061224 0.085714 0.675280 0 255 0
-0.053061 0.085714 0.675158 0 255 0
-0.044898 0.085714 0.675036 0 255 0
-0.036735 0.085714 0.674914 0 255 0
-0.028571 0.085714 0.674792 0 255 0
-0.020408 0.085714 0.674670 0 255 0
-0.012245 0.085714 0.674548 0 255 0
-0.004082 0.085714 0.674426 0 255 0
0.004082 0.085714 0.674304 0 255 0
0.012245 0.085714 0.674182 0 255 0
0.020408 0.085714 0.674060 0 255 0
0.028571 0.085714 0.673938 0 255 0
0.036735 0.085714 0.673816 0 255 0
0.044898 0.085714 0.673694 0 255 0
0.053061 0.085714 0.673572 0 255 0
0.061224 0.085714 0.673450 0 255 0
0.069388 0.085714 0.673328 0 255 0
0.077551 0.085714 0.673206 0 255 0
0.085714 0.085714 0.673084 0 255 0
0.093878 0.085714 0.672962 0 255 0
0.102041 0.085714 0.672840 0 255 0
0.110204 0.085714 0.672718 0 255 0
0.118367 0.085714 0.672596 0 255 0
0.126531 0.085714 0.672474 0 255 0
0.134694 0.085714 0.672352 0 255 0
0.142857 0.085714 0.672230 0 255 0
0.151020 0.085714 0.672108 0 255 0
0.159184 0.085714 0.671986 0 255 0
0.167347 0.085714 0.671864 0 255 0
0.175510 0.085714 0.671742 0 255 0
0.183673 0.085714 0.671620 0 255 0
0.191837 0.085714 0.671499 0 255 0
0.200000 0.085714 0.671377 0 255 0
-0.200000 0.093878 0.673648 0 255 0
-0.191837 0.093878 0.673526 0 255 0
-0.183673 0.093878 0.673404 0 255 0
-0.175510 0.093878 0.673282 0 255 0
-0.167347 0.093878 0.673160 0 255 0
-0.159184 0.093878 0.673038 0 255 0
-0.151020 0.093878 0.672916 0 255 0
-0.142857 0.093878 0.672794 0 255 0
-0.134694 0.093878 0.672672 0 255 0
-0.126531 0.093878 0.672550 0 255 0
-0.118367 0.093878 0.672428 0 255 0
-0.110204 0.093878 0.672306 0 255 0
-0.102041 0.093878 0.672184 0 255 0
-0.093878 0.093878 0.672062 0 255 0
-0.085714 0.093878 0.671940 0 255 0
-0.077551 0.093878 0.671818 0 255 0
-0.069388 0.093878 0.671696 0 255 0
-0.061224 0.093878 0.671574 0 255 0
-0.053061 0.093878 0.671452 0 255 0
-0.044898 0.093878 0.671330 0 255 0
-0.036735 0.093878 0.671208 0 255 0
-0.028571 0.093878 0.671086 0 255 0
-0.020408 0.093878 0.670964 0 255 0
-0.012245 0.093878 0.670842 0 255 0
-0.004082 0.093878 0.670720 0 255 0
0.004082 0.093878 0.670598 0 255 0
0.012245 0.093878 0.670476 0 255 0
0.020408 0.093878 0.670354 0 255 0
0.028571 0.093878 0.670232 0 255 0
0.036735 0.093878 0.670110 0 255 0
0.044898 0.093878 0.669988 0 255 0
0.053061 0.093878 0.669866 0 255 0
0.061224 0.093878 0.669744 0 255 0
0.069388 0.093878 0.669622 0 255 0
0.077551 0.093878 0.669500 0 255 0
0.085714 0.093878 0.669378 0 255 0
0.093878 0.093878 0.669256 0 255 0
0.102041 0.093878 0.669134 0 255 0
0.110204 0.093878 0.669012 0 255 0
0.118367 0.093878 0.668890 0 255 0
0.126531 0.093878 0.668768 0 255 0
0.134694 0.093878 0.668646 0 255 0
0.142857 0.093878 0.668524 0 255 0
0.151020 0.093878 0.668402 0 255 0
0.159184 0.093878 0.668280 0 255 0
0.167347 0.093878 0.668158 0 255 0
0.175510 0.093878 0.668036 0 255 0
0.183673 0.093878 0.667914 0 255 0
0.191837 0.093878 0.667792 0 255 0
0.200000 0.093878 0.667670 0 255 0
-0.200000 0.102041 0.669942 0 255 0
-0.191837 0.102041 0.669820 0 255 0
-0.183673 0.102041 0.669698 0 255 0
-0.175510 0.102041 0.669576 0 255 0
-0.167347 0.102041 0.669454 0 255 0
-0.159184 0.102041 0.669332 0 255 0
-0.151020 0.102041 0.669210 0 255 0
-0.142857 0.102041 0.669088 0 255 0
-0.134694 0.102041 0.668966 0 255 0
-0.126531 0.102041 0.668844 0 255 0
-0.118367 0.102041 0.668722 0 255 0
-0.110204 0.102041 0.668600 0 255 0
-0.102041 0.102041 0.668478 0 255 0
-0.093878 0.102041 0.668356 0 255 0
-0.085714 0.102041 0.668234 0 255 0
-0.077551 0.102041 0.668112 0 255 0
-0.069388 0.102041 0.667990 0 255 0
-0.061224 0.102041 0.667868 0 255 0
-0.053061 0.102041 0.667746 0 255 0
-0.044898 0.102041 0.667624 0 255 0
-0.036735 0.102041 0.667502 0 255 0
-0.028571 0.102041 0.667380 0 255 0
-0.020408 0.102041 0.667258 0 255 0
-0.012245 0.102041 0.667136 0 255 0
-0.004082 0.102041 0.667014 0 255 0
0.004082 0.102041 0.666892 0 255 0
0.012245 0.102041 0.666770 0 255 0
0.020408 0.102041 0.666648 0 255 0
0.028571 0.102041 0.666526 0 255 0
0.036735 0.102041 0.666404 0 255 0
0.044898 0.102041 0.666282 0 255 0
0.053061 0.102041 0.666160 0 255 0
0.061224 0.102041 0.666038 0 255 0
0.069388 0.102041 0.665916 0 255 0
0.077551 0.102041 0.665794 0 255 0
0.085714 0.102041 0.665672 0 255 0
0.093878 0.102041 0.665550 0 255 0
0.102041 0.102041 0.665428 0 255 0
0.110204 0.102041 0.665306 0 255 0
0.118367 0.102041 0.665184 0 255 0
0.126531 0.102041 0.665062 0 255 0
0.134694 0.102041 0.664940 0 255 0
0.142857 0.102041 0.664818 0 255 0
0.151020 0.102041 0.664696 0 255 0
0.159184 0.102041 0.664574 0 255 0
0.167347 0.102041 0.664452 0 255 0
0.175510 0.102041 0.664330 0 255 0
0.183673 0.102041 0.664208 0 255 0
0.191837 0.102041 0.664086 0 255 0
0.200000 0.102041 0.663964 0 255 0
-0.200000 0.110204 0.666236 0 255 0
-0.191837 0.110204 0.666114 0 255 0
-0.183673 0.110204 0.665992 0 255 0
-0.175510 0.110204 0.665870 0 255 0
-0.167347 0.110204 0.665748 0 255 0
-0.159184 0.110204 0.665626 0 255 0
-0.151020 0.110204 0.665504 0 255 0
-0.142857 0.110204 0.665382 0 255 0
-0.134694 0.110204 0.665260 0 255 0
-0.126531 0.110204 0.665138 0 255 0
-0.118367 0.110204 0.665016 0 255 0
-0.110204 0.110204 0.664894 0 255 0
-0.102041 0.110204 0.664772 0 255 0
-0.093878 0.110204 0.664650 0 255 0
-0.085714 0.110204 0.664528 0 255 0
-0.077551 0.110204 0.664406 0 255 0
-0.069388 0.110204 0.664284 0 255 0
-0.061224 0.110204 0.664162 0 255 0
-0.053061 0.110204 0.664040 0 255 0
-0.044898 0.110204 0.663918 0 255 0
-0.036735 0.110204 0.663796 0 255 0
-0.028571 0.110204 0.663674 0 255 0
-0.020408 0.110204 0.663552 0 255 0
-0.012245 0.110204 0.663430 0 255 0
-0.004082 0.110204 0.663308 0 255 0
0.004082 0.110204 0.663186 0 255 0
0.012245 0.110204 0.663064 0 255 0
0.020408 0.110204 0.662942 0 255 0
0.028571 0.110204 0.662820 0 255 0
0.036735 0.110204 0.662698 0 255 0
0.044898 0.110204 0.662576 0 255 0
0.053061 0.110204 0.662454 0 255 0
0.061224 0.110204 0.662332 0 255 0
0.069388 0.110204 0.662210 0 255 0
0.077551 0.110204 0.662088 0 255 0
0.085714 0.110204 0.661966 0 255 0
0.093878 0.110204 0.661844 0 255 0
0.102041 0.110204 0.661722 0 255 0
0.110204 0.110204 0.661600 0 255 0
0.118367 0.110204 0.661478 0 255 0
0.126531 0.110204 0.661356 0 255 0
0.134694 0.110204 0.661234 0 255 0
0.142857 0.110204 0.661112 0 255 0
0.151020 0.110204 0.660990 0 255 0
0.159184 0.110204 0.660868 0 255 0
0.167347 0.110204 0.660746 0 255 0
0.175510 0.110204 0.660624 0 255 0
0.183673 0.110204 0.660502 0 255 0
0.191837 0.110204 0.660380 0 255 0
0.200000 0.110204 0.660258 0 255 0
-0.200000 0.118367 0.662530 0 255 0
-0.191837 0.118367 0.662408 0 255 0
-0.183673 0.118367 0.662286 0 255 0
-0.175510 0.118367 0.662164 0 255 0
-0.167347 0.118367 0.662042 0 255 0
-0.159184 0.118367 0.661920 0 255 0
-0.151020 0.118367 0.661798 0 255 0
-0.142857 0.118367 0.661676 0 255 0
-0.134694 0.118367 0.661554 0 255 0
-0.126531 0.118367 0.661432 0 255 0
-0.118367 0.118367 0.661310 0 255 0
-0.110204 0.118367 0.661188 0 255 0
-0.102041 0.118367 0.661066 0 255 0
-0.093878 0.118367 0.660944 0 255 0
-0.085714 0.118367 0.660822 0 255 0
-0.077551 0.118367 0.660700 0 255 0
-0.069388 0.118367 0.660578 0 255 0
-0.061224 0.118367 0.660456 0 255 0
-0.053061 0.118367 0.660334 0 255 0
-0.044898 0.118367 0.660212 0 255 0
-0.036735 0.118367 0.660090 0 255 0
-0.028571 0.118367 0.659968 0 255 0
-0.020408 0.118367 0.659846 0 255 0
-0.012245 0.118367 0.659724 0 255 0
-0.004082 0.118367 0.659602 0 255 0
0.004082 0.118367 0.659480 0 255 0
0.012245 0.118367 0.659358 0 255 0
0.020408 0.118367 0.659236 0 255 0
0.028571 0.118367 0.659114 0 255 0
0.036735 0.118367 0.658992 0 255 0
0.044898 0.118367 0.658870 0 255 0
0.053061 0.118367 0.658748 0 255 0
0.061224 0.118367 0.658626 0 255 0
0.069388 0.118367 0.658504 0 255 0
0.077551 0.118367 0.658382 0 255 0
0.085714 0.118367 0.658260 0 255 0
0.093878 0.118367 0.658138 0 255 0
0.102041 0.118367 0.658016 0 255 0
0.110204 0.118367 0.657894 0 255 0
0.118367 0.118367 0.657772 0 255 0
0.126531 0.118367 0.657650 0 255 0
0.134694 0.118367 0.657528 0 255 0
0.142857 0.118367 0.657406 0 255 0
0.151020 0.118367 0.657284 0 255 0
0.159184 0.118367 0.657162 0 255 0
0.167347 0.118367 0.657040 0 255 0
0.175510 0.118367 0.656918 0 255 0
0.183673 0.118367 0.656796 0 255 0
0.191837 0.118367 0.656674 0 255 0
0.200000 0.118367 0.656552 0 255 0
-0.200000 0.126531 0.658823 0 255 0
-0.191837 0.126531 0.658701 0 255 0
-0.183673 0.126531 0.658579 0 255 0
-0.175510 0.126531 0.658457 0 255 0
-0.167347 0.126531 0.658335 0 255 0
-0.159184 0.126531 0.658213 0 255 0
-0.151020 0.126531 0.658091 0 255 0
-0.142857 0.126531 0.657969 0 255 0
-0.134694 0.126531 0.657847 0 255 0
-0.126531 0.126531 0.657725 0 255 0
-0.118367 0.126531 0.657603 0 255 0
-0.110204 0.126531 0.657481 0 255 0
-0.102041 0.126531 0.657359 0 255 0
-0.093878 0.126531 0.657237 0 255 0
-0.085714 0.126531 0.657115 0 255 0
-0.077551 0.126531 0.656993 0 255 0
-0.069388 0.126531 0.656871 0 255 0
-0.061224 0.126531 0.656749 0 255 0
-0.053061 0.126531 0.656627 0 255 0
-0.044898 0.126531 0.656505 0 255 0
-0.036735 0.126531 0.656383 0 255 0
-0.028571 0.126531 0.656261 0 255 0
-0.020408 0.126531 0.656139 0 255 0
-0.012245 0.126531 0.656017 0 255 0
-0.004082 0.126531 0.655895 0 255 0
0.004082 0.126531 0.655773 0 255 0
0.012245 0.126531 0.655651 0 255 0
0.020408 0.126531 0.655529 0 255 0
0.028571 0.126531 0.655407 0 255 0
0.036735 0.126531 0.655285 0 255 0
0.044898 0.126531 0.655163 0 255 0
0.053061 0.126531 0.655041 0 255 0
0.061224 0.126531 0.654919 0 255 0
0.069388 0.126531 0.654797 0 255 0
0.077551 0.126531 0.654675 0 255 0
0.085714 0.126531 0.654553 0 255 0
0.093878 0.126531 0.654431 0 255 0
0.102041 0.126531 0.654309 0 255 0
0.110204 0.126531 0.654187 0 255 0
0.118367 0.126531 0.654065 0 255 0
0.126531 0.126531 0.653943 0 255 0
0.134694 0.126531 0.653821 0 255 0
0.142857 0.126531 0.653699 0 255 0
0.151020 0.126531 0.653577 0 255 0
0.159184 0.126531 0.653455 0 255 0
0.167347 0.126531 0.653333 0 255 0
0.175510 0.126531 0.653212 0 255 0
0.183673 0.126531 0.653090 0 255 0
0.191837 0.126531 0.652968 0 255 0
0.200000 0.126531 0.652846 0 255 0
-0.200000 0.134694 0.655117 0 255 0
-0.191837 0.134694 0.654995 0 255 0
-0.183673 0.134694 0.654873 0 255 0
-0.175510 0.134694 0.654751 0 255 0
-0.167347 0.134694 0.654629 0 255 0
-0.159184 0.134694 0.654507 0 255 0
-0.151020 0.134694 0.654385 0 255 0
-0.142857 0.134694 0.654263 0 255 0
-0.134694 0.134694 0.654141 0 255 0
-0.126531 0.134694 0.654019 0 255 0
-0.118367 0.134694 0.653897 0 255 0
-0.110204 0.134694 0.653775 0 255 0
-0.102041 0.134694 0.653653 0 255 0
-0.093878 0.134694 0.653531 0 255 0
-0.085714 0.134694 0.653409 0 255 0
-0.077551 0.134694 0.653287 0 255 0
-0.069388 0.134694 0.653165 0 255 0
-0.061224 0.134694 0.653043 0 255 0
-0.053061 0.134694 0.652921 0 255 0
-0.044898 0.134694 0.652799 0 255 0
-0.036735 0.134694 0.652677 0 255 0
-0.028571 0.134694 0.652555 0 255 0
-0.020408 0.134694 0.652433 0 255 0
-0.012245 0.134694 0.652311 0 255 0
-0.004082 0.134694 0.652189 0 255 0
0.004082 0.134694 0.652067 0 255 0
0.012245 0.134694 0.651945 0 255 0
0.020408 0.134694 0.651823 0 255 0
0.028571 0.134694 0.651701 0 255 0
0.036735 0.134694 0.651579 0 255 0
0.044898 0.134694 0.651457 0 255 0
0.053061 0.134694 0.651335 0 255 0
0.061224 0.134694 0.651213 0 255 0
0.069388 0.134694 0.651091 0 255 0
0.077551 0.134694 0.650969 0 255 0
0.085714 0.134694 0.650847 0 255 0
0.093878 0.134694 0.650725 0 255 0
0.102041 0.134694 0.650603 0 255 0
0.110204 0.134694 0.650481 0 255 0
0.118367 0.134694 0.650359 0 255 0
0.126531 0.134694 0.650237 0 255 0
0.134694 0.134694 0.650115 0 255 0
0.142857 0.134694 0.649993 0 255 0
0.151020 0.134694 0.649871 0 255 0
0.159184 0.134694 0.649749 0 255 0
0.167347 0.134694 0.649627 0 255 0
0.175510 0.134694 0.649505 0 255 0
0.183673 0.134694 0.649383 0 255 0
0.191837 0.134694 0.649261 0 255 0
0.200000 0.134694 0.649139 0 255 0
-0.200000 0.142857 0.651411 0 255 0
-0.191837 0.142857 0.651289 0 255 0
-0.183673 0.142857 0.651167 0 255 0
-0.175510 0.142857 0.651045 0 255 0
-0.167347 0.142857 0.650923 0 255 0
-0.159184 0.142857 0.650801 0 255 0
-0.151020 0.142857 0.650679 0 255 0
-0.142857 0.142857 0.650557 0 255 0
-0.134694 0.142857 0.650435 0 255 0
-0.126531 0.142857 0.650313 0 255 0
-0.118367 0.142857 0.650191 0 255 0
-0.110204 0.142857 0.650069 0 255 0
-0.102041 0.142857 0.649947 0 255 0
-0.093878 0.142857 0.649825 0 255 0
-0.085714 0.142857 0.649703 0 255 0
-0.077551 0.142857 0.649581 0 255 0
-0.069388 0.142857 0.649459 0 255 0
-0.061224 0.142857 0.649337 0 255 0
-0.053061 0.142857 0.649215 0 255 0
-0.044898 0.142857 0.649093 0 255 0
-0.036735 0.142857 0.648971 0 255 0
-0.028571 0.142857 0.648849 0 255 0
-0.020408 0.142857 0.648727 0 255 0
-0.012245 0.142857 0.648605 0 255 0
-0.004082 0.142857 0.648483 0 255 0
0.004082 0.142857 0.648361 0 255 0
0.012245 0.142857 0.648239 0 255 0
0.020408 0.142857 0.648117 0 255 0
0.028571 0.142857 0.647995 0 255 0
0.036735 0.142857 0.647873 0 255 0
0.044898 0.142857 0.647751 0 255 0
0.053061 0.142857 0.647629 0 255 0
0.061224 0.142857 0.647507 0 255 0
0.069388 0.142857 0.647385 0 255 0
0.077551 0.142857 0.647263 0 255 0
0.085714 0.142857 0.647141 0 255 0
0.093878 0.142857 0.647019 0 255 0
0.102041 0.142857 0.646897 0 255 0
0.110204 0.142857 0.646775 0 255 0
0.118367 0.142857 0.646653 0 255 0
0.126531 0.142857 0.646531 0 255 0
0.134694 0.142857 0.646409 0 255 0
0.142857 0.142857 0.646287 0 255 0
0.151020 0.142857 0.646165 0 255 0
0.159184 0.142857 0.646043 0 255 0
0.167347 0.142857 0.645921 0 255 0
0.175510 0.142857 0.645799 0 255 0
0.183673 0.142857 0.645677 0 255 0
0.191837 0.142857 0.645555 0 255 0
0.200000 0.142857 0.645433 0 255 0
-0.200000 0.151020 0.647705 0 255 0
-0.191837 0.151020 0.647583 0 255 0
-0.183673 0.151020 0.647461 0 255 0
-0.175510 0.151020 0.647339 0 255 0
-0.167347 0.151020 0.647217 0 255 0
-0.159184 0.151020 0.647095 0 255 0
-0.151020 0.151020 0.646973 0 255 0
-0.142857 0.151020 0.646851 0 255 0
-0.134694 0.151020 0.646729 0 255 0
-0.126531 0.151020 0.646607 0 255 0
-0.118367 0.151020 0.646485 0 255 0
-0.110204 0.151020 0.646363 0 255 0
-0.102041 0.151020 0.646241 0 255 0
-0.093878 0.151020 0.646119 0 255 0
-0.085714 0.151020 0.645997 0 255 0
-0.077551 0.151020 0.645875 0 255 0
-0.069388 0.151020 0.645753 0 255 0
-0.061224 0.151020 0.645631 0 255 0
-0.053061 0.151020 0.645509 0 255 0
-0.044898 0.151020 0.645387 0 255 0
-0.036735 0.151020 0.645265 0 255 0
-0.028571 0.151020 0.645143 0 255 0
-0.020408 0.151020 0.645021 0 255 0
-0.012245 0.151020 0.644899 0 255 0
-0.004082 0.151020 0.644777 0 255 0
0.004082 0.151020 0.644655 0 255 0
0.012245 0.151020 0.644533 0 255 0
0.020408 0.151020 0.644411 0 255 0
0.028571 0.151020 0.644289 0 255 0
0.036735 0.151020 0.644167 0 255 0
0.044898 0.151020 0.644045 0 255 0
0.053061 0.151020 0.643923 0 255 0
0.061224 0.151020 0.643801 0 255 0
0.069388 0.151020 0.643679 0 255 0
0.077551 0.151020 0.643557 0 255 0
0.085714 0.151020 0.643435 0 255 0
0.093878 0.151020 0.643313 0 255 0
0.102041 0.151020 0.643191 0 255 0
0.110204 0.151020 0.643069 0 255 0
0.118367 0.151020 0.642947 0 255 0
0.126531 0.151020 0.642825 0 255 0
0.134694 0.151020 0.642703 0 255 0
0.142857 0.151020 0.642581 0 255 0
0.151020 0.151020 0.642459 0 255 0
0.159184 0.151020 0.642337 0 255 0
0.167347 0.151020 0.642215 0 255 0
0.175510 0.151020 0.642093 0 255 0
0.183673 0.151020 0.641971 0 255 0
0.191837 0.151020 0.641849 0 255 0
0.200000 0.151020 0.641727 0 255 0
-0.200000 0.159184 0.643999 0 255 0
-0.191837 0.159184 0.643877 0 255 0
-0.183673 0.159184 0.643755 0 255 0
-0.175510 0.159184 0.643633 0 255 0
-0.167347 0.159184 0.643511 0 255 0
-0.159184 0.159184 0.643389 0 255 0
-0.151020 0.159184 0.643267 0 255 0
-0.142857 0.159184 0.643145 0 255 0
-0.134694 0.159184 0.643023 0 255 0
-0.126531 0.159184 0.642901 0 255 0
-0.118367 0.159184 0.642779 0 255 0
-0.110204 0.159184 0.642657 0 255 0
-0.102041 0.159184 0.642535 0 255 0
-0.093878 0.159184 0.642413 0 255 0
-0.085714 0.159184 0.642291 0 255 0
-0.077551 0.159184 0.642169 0 255 0
-0.069388 0.159184 0.642047 0 255 0
-0.061224 0.159184 0.641925 0 255 0
-0.053061 0.159184 0.641803 0 255 0
-0.044898 0.159184 0.641681 0 255 0
-0.036735 0.159184 0.641559 0 255 0
-0.028571 0.159184 0.641437 0 255 0
-0.020408 0.159184 0.641315 0 255 0
-0.012245 0.159184 0.641193 0 255 0
-0.004082 0.159184 0.641071 0 255 0
0.004082 0.159184 0.640949 0 255 0
0.012245 0.159184 0.640827 0 255 0
0.020408 0.159184 0.640705 0 255 0
0.028571 0.159184 0.640583 0 255 0
0.036735 0.159184 0.640461 0 255 0
0.044898 0.159184 0.640339 0 255 0
0.053061 0.159184 0.640217 0 255 0
0.061224 0.159184 0.640095 0 255 0
0.069388 0.159184 0.639973 0 255 0
0.077551 0.159184 0.639851 0 255 0
0.085714 0.159184 0.639729 0 255 0
0.093878 0.159184 0.639607 0 255 0
0.102041 0.159184 0.639485 0 255 0
0.110204 0.159184 0.639363 0 255 0
0.118367 0.159184 0.639241 0 255 0
0.126531 0.159184 0.639119 0 255 0
0.134694 0.159184 0.638997 0 255 0
0.142857 0.159184 0.638875 0 255 0
0.151020 0.159184 0.638753 0 255 0
0.159184 0.159184 0.638631 0 255 0
0.167347 0.159184 0.638509 0 255 0
0.175510 0.159184 0.638387 0 255 0
0.183673 0.159184 0.638265 0 255 0
0.191837 0.159184 0.638143 0 255 0
0.200000 0.159184 0.638021 0 255 0
-0.200000 0.167347 0.640292 0 255 0
-0.191837 0.167347 0.640170 0 255 0
-0.183673 0.167347 0.640048 0 255 0
-0.175510 0.167347 0.639926 0 255 0
-0.167347 0.167347 0.639804 0 255 0
-0.159184 0.167347 0.639682 0 255 0
-0.151020 0.167347 0.639560 0 255 0
-0.142857 0.167347 0.639438 0 255 0
-0.134694 0.167347 0.639316 0 255 0
-0.126531 0.167347 0.639194 0 255 0
-0.118367 0.167347 0.639072 0 255 0
-0.110204 0.167347 0.638950 0 255 0
-0.102041 0.167347 0.638828 0 255 0
-0.093878 0.167347 0.638706 0 255 0
-0.085714 0.167347 0.638584 0 255 0
-0.077551 0.167347 0.638462 0 255 0
-0.069388 0.167347 0.638340 0 255 0
-0.061224 0.167347 0.638218 0 255 0
-0.053061 0.167347 0.638096 0 255 0
-0.044898 0.167347 0.637974 0 255 0
-0.036735 0.167347 0.637852 0 255 0
-0.028571 0.167347 0.637730 0 255 0
-0.020408 0.167347 0.637608 0 255 0
-0.012245 0.167347 0.637486 0 255 0
-0.004082 0.167347 0.637364 0 255 0
0.004082 0.167347 0.637242 0 255 0
0.012245 0.167347 0.637120 0 255 0
0.020408 0.167347 0.636998 0 255 0
0.028571 0.167347 0.636876 0 255 0
0.036735 0.167347 0.636754 0 255 0
0.044898 0.167347 0.636632 0 255 0
0.053061 0.167347 0.636510 0 255 0
0.061224 0.167347 0.636388 0 255 0
0.069388 0.167347 0.636266 0 255 0
0.077551 0.167347 0.636144 0 255 0
0.085714 0.167347 0.636022 0 255 0
0.093878 0.167347 0.635900 0 255 0
0.102041 0.167347 0.635778 0 255 0
0.110204 0.167347 0.635656 0 255 0
0.118367 0.167347 0.635534 0 255 0
0.126531 0.167347 0.635412 0 255 0
0.134694 0.167347 0.635290 0 255 0
0.142857 0.167347 0.635168 0 255 0
0.151020 0.167347 0.635047 0 255 0
0.159184 0.167347 0.634925 0 255 0
0.167347 0.167347 0.634803 0 255 0
0.175510 0.167347 0.634681 0 255 0
0.183673 0.167347 0.634559 0 255 0
0.191837 0.167347 0.634437 0 255 0
0.200000 0.167347 0.634315 0 255 0
-0.200000 0.175510 0.636586 0 255 0
-0.191837 0.175510 0.636464 0 255 0
-0.183673 0.175510 0.636342 0 255 0
-0.175510 0.175510 0.636220 0 255 0
-0.167347 0.175510 0.636098 0 255 0
-0.159184 0.175510 0.635976 0 255 0
-0.151020 0.175510 0.635854 0 255 0
-0.142857 0.175510 0.635732 0 255 0
-0.134694 0.175510 0.635610 0 255 0
-0.126531 0.175510 0.635488 0 255 0
-0.118367 0.175510 0.635366 0 255 0
-0.110204 0.175510 0.635244 0 255 0
-0.102041 0.175510 0.635122 0 255 0
-0.093878 0.175510 0.635000 0 255 0
-0.085714 0.175510 0.634878 0 255 0
-0.077551 0.175510 0.634756 0 255 0
-0.069388 0.175510 0.634634 0 255 0
-0.061224 0.175510 0.634512 0 255 0
-0.053061 0.175510 0.634390 0 255 0
-0.044898 0.175510 0.634268 0 255 0
-0.036735 0.175510 0.634146 0 255 0
-0.028571 0.175510 0.634024 0 255 0
-0.020408 0.175510 0.633902 0 255 0
-0.012245 0.175510 0.633780 0 255 0
-0.004082 0.175510 0.633658 0 255 0
0.004082 0.175510 0.633536 0 255 0
0.012245 0.175510 0.633414 0 255 0
0.020408 0.175510 0.633292 0 255 0
0.028571 0.175510 0.633170 0 255 0
0.036735 0.175510 0.633048 0 255 0
0.044898 0.175510 0.632926 0 255 0
0.053061 0.175510 0.632804 0 255 0
0.061224 0.175510 0.632682 0 255 0
0.069388 0.175510 0.632560 0 255 0
0.077551 0.175510 0.632438 0 255 0
0.085714 0.175510 0.632316 0 255 0
0.093878 0.175510 0.632194 0 255 0
0.102041 0.175510 0.632072 0 255 0
0.110204 0.175510 0.631950 0 255 0
0.118367 0.175510 0.631828 0 255 0
0.126531 0.175510 0.631706 0 255 0
0.134694 0.175510 0.631584 0 255 0
0.142857 0.175510 0.631462 0 255 0
0.151020 0.175510 0.631340 0 255 0
0.159184 0.175510 0.631218 0 255 0
0.167347 0.175510 0.631096 0 255 0
0.175510 0.175510 0.630974 0 255 0
0.183673 0.175510 0.630852 0 255 0
0.191837 0.175510 0.630730 0 255 0
0.200000 0.175510 0.630608 0 255 0
-0.200000 0.183673 0.632880 0 255 0
-0.191837 0.183673 0.632758 0 255 0
-0.183673 0.183673 0.632636 0 255 0
-0.175510 0.183673 0.632514 0 255 0
-0.167347 0.183673 0.632392 0 255 0
-0.159184 0.183673 0.632270 0 255 0
-0.151020 0.183673 0.632148 0 255 0
-0.142857 0.183673 0.632026 0 255 0
-0.134694 0.183673 0.631904 0 255 0
-0.126531 0.183673 0.631782 0 255 0
-0.118367 0.183673 0.631660 0 255 0
-0.110204 0.183673 0.631538 0 255 0
-0.102041 0.183673 0.631416 0 255 0
-0.093878 0.183673 0.631294 0 255 0
-0.085714 0.183673 0.631172 0 255 0
-0.077551 0.183673 0.631050 0 255 0
-0.069388 0.183673 0.630928 0 255 0
-0.061224 0.183673 0.630806 0 255 0
-0.053061 0.183673 0.630684 0 255 0
