ply
format ascii 1.0
element vertex 1317
property float x
property float y
property float z
property uchar red
property uchar green
property uchar blue
end_header
-0.078121 -0.181384 0.715581 0 0 127
-0.076661 -0.181117 0.714530 0 0 127
-0.075181 -0.180792 0.713246 0 0 127
-0.073672 -0.180385 0.711641 0 0 127
-0.072076 -0.179745 0.709115 0 0 127
-0.070469 -0.179053 0.706385 0 0 127
-0.068741 -0.178021 0.702315 0 0 127
-0.066808 -0.176408 0.695949 0 0 127
-0.064646 -0.174113 0.686896 0 0 127
-0.062595 -0.172031 0.678681 0 0 127
-0.060925 -0.170928 0.674330 0 0 127
-0.059507 -0.170503 0.672656 0 0 127
-0.058295 -0.170662 0.673281 0 0 127
-0.057147 -0.171019 0.674691 0 0 127
-0.056053 -0.171555 0.676805 0 0 127
-0.054970 -0.172154 0.679170 0 0 127
-0.053874 -0.172737 0.681470 0 0 127
-0.052738 -0.173220 0.683373 0 0 127
-0.051623 -0.173798 0.685653 0 0 127
-0.050445 -0.174186 0.687186 0 0 127
-0.049247 -0.174525 0.688521 0 0 127
-0.047969 -0.174588 0.688771 0 0 127
-0.046697 -0.174680 0.689132 0 0 127
-0.045433 -0.174809 0.689642 0 0 127
-0.044154 -0.174885 0.689944 0 0 127
-0.042856 -0.174885 0.689944 0 0 127
-0.041553 -0.174870 0.689884 0 0 127
-0.040249 -0.174846 0.689789 0 0 127
-0.038973 -0.174947 0.690188 0 0 127
-0.037684 -0.174992 0.690364 0 0 127
-0.036407 -0.175100 0.690792 0 0 127
-0.035125 -0.175194 0.691160 0 0 127
-0.033852 -0.175334 0.691712 0 0 127
-0.032567 -0.175430 0.692091 0 0 127
-0.031272 -0.175469 0.692248 0 0 127
-0.029964 -0.175444 0.692149 0 0 127
-0.028644 -0.175336 0.691724 0 0 127
-0.027324 -0.175219 0.691259 0 0 127
-0.026004 -0.175094 0.690768 0 0 127
-0.024692 -0.175007 0.690423 0 0 127
-0.023372 -0.174858 0.689834 0 0 127
-0.022050 -0.174674 0.689110 0 0 127
-0.020724 -0.174428 0.688139 0 0 127
-0.019393 -0.174107 0.686873 0 0 127
-0.018050 -0.173620 0.684953 0 0 127
-0.016694 -0.172932 0.682237 0 0 127
-0.015187 -0.170433 0.672379 0 0 127
-0.013562 -0.166031 0.655012 0 0 127
-0.012211 -0.164446 0.648759 0 0 127
-0.010958 -0.163958 0.646836 0 0 127
-0.009725 -0.163702 0.645823 0 0 127
-0.008502 -0.163565 0.645282 0 0 127
-0.007284 -0.163477 0.644936 0 0 127
-0.006069 -0.163448 0.644821 0 0 127
-0.004854 -0.163415 0.644692 0 0 127
-0.003640 -0.163387 0.644581 0 0 127
-0.002427 -0.163396 0.644617 0 0 127
-0.001213 -0.163410 0.644674 0 0 127
0.000000 -0.163551 0.645230 0 0 127
0.001216 -0.163731 0.645938 0 0 127
0.002435 -0.163934 0.646739 0 0 127
0.003658 -0.164194 0.647767 0 0 127
0.004887 -0.164526 0.649073 0 0 127
0.006122 -0.164895 0.650529 0 0 127
0.007365 -0.165306 0.652151 0 0 127
0.008617 -0.165779 0.654019 0 0 127
0.009866 -0.166075 0.655186 0 0 127
0.011107 -0.166199 0.655674 0 0 127
0.012339 -0.166161 0.655524 0 0 127
0.013548 -0.165863 0.654348 0 0 127
0.014718 -0.165169 0.651613 0 0 127
0.015879 -0.164486 0.648919 0 0 127
0.017049 -0.163997 0.646989 0 0 127
0.018236 -0.163719 0.645890 0 0 127
0.019435 -0.163581 0.645346 0 0 127
0.020644 -0.163536 0.645169 0 0 127
0.021889 -0.163759 0.646051 0 0 127
0.023187 -0.164342 0.648349 0 0 127
0.024589 -0.165564 0.653171 0 0 127
0.026055 -0.167085 0.659169 0 0 127
0.027503 -0.168352 0.664169 0 0 127
0.028914 -0.169296 0.667894 0 0 127
0.030272 -0.169861 0.670124 0 0 127
0.031582 -0.170121 0.671150 0 0 127
0.032882 -0.170312 0.671903 0 0 127
0.034168 -0.170416 0.672311 0 0 127
0.035439 -0.170446 0.672429 0 0 127
0.036705 -0.170445 0.672425 0 0 127
0.037973 -0.170456 0.672471 0 0 127
0.039219 -0.170369 0.672127 0 0 127
0.040459 -0.170267 0.671723 0 0 127
0.041651 -0.169969 0.670546 0 0 127
0.042786 -0.169466 0.668566 0 0 127
0.043909 -0.168946 0.666511 0 0 127
0.045050 -0.168520 0.664832 0 0 127
0.046211 -0.168191 0.663533 0 0 127
0.047363 -0.167847 0.662177 0 0 127
0.048538 -0.167601 0.661207 0 0 127
0.049722 -0.167397 0.660401 0 0 127
0.050929 -0.167278 0.659930 0 0 127
0.052130 -0.167147 0.659415 0 0 127
0.053358 -0.167106 0.659254 0 0 127
0.054591 -0.167080 0.659151 0 0 127
0.055826 -0.167063 0.659085 0 0 127
0.057078 -0.167099 0.659226 0 0 127
0.058352 -0.167192 0.659591 0 0 127
0.059641 -0.167327 0.660126 0 0 127
0.060937 -0.167474 0.660706 0 0 127
0.062250 -0.167659 0.661435 0 0 127
0.063546 -0.167794 0.661969 0 0 127
0.064843 -0.167926 0.662487 0 0 127
0.066174 -0.168140 0.663333 0 0 127
0.067591 -0.168561 0.664993 0 0 127
0.068952 -0.168827 0.666042 0 0 127
0.070188 -0.168785 0.665878 0 0 127
0.071361 -0.168595 0.665126 0 0 127
0.072494 -0.168319 0.664040 0 0 127
0.073634 -0.168069 0.663054 0 0 127
0.074775 -0.167829 0.662104 0 0 127
0.075947 -0.167664 0.661453 0 0 127
0.077129 -0.167527 0.660916 0 0 127
0.078340 -0.167458 0.660641 0 0 127
0.079575 -0.167438 0.660564 0 0 127
0.080820 -0.167442 0.660579 0 0 127
0.082090 -0.167497 0.660794 0 0 127
0.083392 -0.167614 0.661256 0 0 127
0.084699 -0.167738 0.661747 0 0 127
0.086011 -0.167867 0.662254 0 0 127
0.087303 -0.167954 0.662598 0 0 127
0.088650 -0.168143 0.663344 0 0 127
0.089972 -0.168282 0.663892 0 0 127
0.091191 -0.168225 0.663668 0 0 127
0.092026 -0.167470 0.660689 0 0 127
0.093003 -0.166992 0.658802 0 0 127
0.094151 -0.166829 0.658159 0 0 127
0.095355 -0.166768 0.657921 0 0 127
0.096549 -0.166691 0.657617 0 0 127
0.097763 -0.166651 0.657457 0 0 127
0.098979 -0.166614 0.657313 0 0 127
0.100216 -0.166615 0.657315 0 0 127
0.101476 -0.166651 0.657459 0 0 127
0.102711 -0.166647 0.657442 0 0 127
0.103929 -0.166616 0.657321 0 0 127
0.105136 -0.166569 0.657135 0 0 127
0.106346 -0.166526 0.656967 0 0 127
0.107582 -0.166526 0.656964 0 0 127
0.108820 -0.166528 0.656972 0 0 127
0.110041 -0.166504 0.656877 0 0 127
0.111287 -0.166518 0.656932 0 0 127
0.112486 -0.166462 0.656713 0 0 127
0.113688 -0.166413 0.656518 0 0 127
0.114911 -0.166394 0.656445 0 0 127
0.116159 -0.166412 0.656515 0 0 127
0.117411 -0.166435 0.656606 0 0 127
0.118681 -0.166483 0.656794 0 0 127
0.119931 -0.166502 0.656870 0 0 127
0.121253 -0.166620 0.657336 0 0 127
0.122540 -0.166687 0.657602 0 0 127
0.123853 -0.166789 0.658003 0 0 127
0.125189 -0.166918 0.658513 0 0 127
0.126575 -0.167112 0.659277 0 0 127
0.127978 -0.167324 0.660113 0 0 127
0.129388 -0.167540 0.660967 0 0 127
0.130789 -0.167742 0.661763 0 0 127
0.132034 -0.167741 0.661758 0 0 127
0.133211 -0.167655 0.661418 0 0 127
0.134389 -0.167572 0.661091 0 0 127
0.135620 -0.167555 0.661024 0 0 127
0.136798 -0.167474 0.660706 0 0 127
0.138012 -0.167438 0.660563 0 0 127
0.139202 -0.167374 0.660310 0 0 127
0.140401 -0.167322 0.660104 0 0 127
0.141586 -0.167254 0.659837 0 0 127
0.142779 -0.167197 0.659610 0 0 127
0.143980 -0.167150 0.659425 0 0 127
0.145160 -0.167079 0.659147 0 0 127
0.146252 -0.166909 0.658476 0 0 127
0.147367 -0.166768 0.657921 0 0 127
0.148552 -0.166708 0.657685 0 0 127
0.149726 -0.166637 0.657404 0 0 127
0.150916 -0.166584 0.657195 0 0 127
0.152115 -0.166543 0.657033 0 0 127
0.153315 -0.166503 0.656874 0 0 127
0.154570 -0.166524 0.656956 0 0 127
0.155774 -0.166488 0.656816 0 0 127
0.156923 -0.166396 0.656453 0 0 127
0.158077 -0.166310 0.656114 0 0 127
0.159230 -0.166225 0.655776 0 0 127
0.160342 -0.166098 0.655278 0 0 127
0.161384 -0.165901 0.654500 0 0 127
0.162308 -0.165587 0.653260 0 0 127
0.163289 -0.165336 0.652269 0 0 127
0.164281 -0.165099 0.651334 0 0 127
0.165345 -0.164936 0.650694 0 0 127
0.166491 -0.164858 0.650386 0 0 127
0.167726 -0.164869 0.650429 0 0 127
0.169123 -0.165038 0.651094 0 0 127
0.170654 -0.165333 0.652260 0 0 127
0.172510 -0.165938 0.654646 0 0 127
0.174682 -0.166836 0.658187 0 0 127
0.176570 -0.167452 0.660617 0 0 127
0.178248 -0.167860 0.662229 0 0 127
0.179903 -0.168243 0.663738 0 0 127
0.181516 -0.168581 0.665072 0 0 127
0.183216 -0.168994 0.666702 0 0 127
0.184863 -0.169352 0.668116 0 0 127
0.186476 -0.169676 0.669393 0 0 127
0.188077 -0.169985 0.670611 0 0 127
0.189878 -0.170468 0.672518 0 0 127
0.191685 -0.170950 0.674420 0 0 127
0.193537 -0.171467 0.676459 0 0 127
0.195247 -0.171852 0.677976 0 0 127
0.196987 -0.172257 0.679574 0 0 127
0.198591 -0.172539 0.680688 0 0 127
0.200155 -0.172783 0.681651 0 0 127
0.201759 -0.173059 0.682738 0 0 127
0.203292 -0.173270 0.683572 0 0 127
0.204809 -0.173465 0.684342 0 0 127
0.206395 -0.173716 0.685331 0 0 127
0.207971 -0.173955 0.686275 0 0 127
0.209555 -0.174198 0.687234 0 0 127
0.211097 -0.174403 0.688041 0 0 127
0.212654 -0.174618 0.688889 0 0 127
0.214166 -0.174794 0.689583 0 0 127
0.215749 -0.175026 0.690497 0 0 127
0.217390 -0.175300 0.691580 0 0 127
0.219050 -0.175588 0.692715 0 0 127
0.220625 -0.175804 0.693567 0 0 127
0.222227 -0.176039 0.694494 0 0 127
0.223830 -0.176272 0.695414 0 0 127
0.225497 -0.176552 0.696518 0 0 127
0.227184 -0.176845 0.697674 0 0 127
0.228852 -0.177119 0.698757 0 0 127
0.230516 -0.177388 0.699816 0 0 127
0.232242 -0.177700 0.701049 0 0 127
0.233961 -0.178004 0.702247 0 0 127
0.235903 -0.178474 0.704100 0 0 127
0.237851 -0.178942 0.705947 0 0 127
0.239900 -0.179481 0.708073 0 0 127
0.242667 -0.180548 0.712283 0 0 127
0.250032 -0.185005 0.729867 0 0 127
-0.118593 -0.190511 0.759106 0 0 127
-0.116325 -0.189147 0.753669 0 0 127
-0.114515 -0.188502 0.751100 0 0 127
-0.112723 -0.187871 0.748587 0 0 127
-0.110987 -0.187320 0.746391 0 0 127
-0.109290 -0.186821 0.744401 0 0 127
-0.107594 -0.186310 0.742368 0 0 127
-0.105909 -0.185806 0.740357 0 0 127
-0.104244 -0.185323 0.738433 0 0 127
-0.102613 -0.184887 0.736697 0 0 127
-0.100961 -0.184403 0.734767 0 0 127
-0.099330 -0.183945 0.732942 0 0 127
-0.097716 -0.183505 0.731187 0 0 127
-0.096119 -0.183084 0.729512 0 0 127
-0.094540 -0.182686 0.727924 0 0 127
-0.092968 -0.182289 0.726345 0 0 127
-0.091399 -0.181888 0.724746 0 0 127
-0.089858 -0.181532 0.723327 0 0 127
-0.088280 -0.181088 0.721558 0 0 127
-0.086751 -0.180731 0.720136 0 0 127
-0.085288 -0.180503 0.719226 0 0 127
-0.083829 -0.180277 0.718328 0 0 127
-0.082358 -0.180017 0.717289 0 0 127
-0.080899 -0.179775 0.716325 0 0 127
-0.079408 -0.179453 0.715043 0 0 127
-0.077908 -0.179098 0.713630 0 0 127
-0.076419 -0.178758 0.712275 0 0 127
-0.074888 -0.178304 0.710467 0 0 127
-0.073365 -0.177855 0.708675 0 0 127
-0.071753 -0.177167 0.705934 0 0 127
-0.070075 -0.176289 0.702437 0 0 127
-0.067938 -0.174201 0.694116 0 0 127
-0.065386 -0.170944 0.681140 0 0 127
-0.062977 -0.167939 0.669166 0 0 127
-0.061258 -0.166689 0.664183 0 0 127
-0.059871 -0.166307 0.662664 0 0 127
-0.058602 -0.166247 0.662422 0 0 127
-0.057434 -0.166475 0.663332 0 0 127
-0.056309 -0.166842 0.664796 0 0 127
-0.055242 -0.167401 0.667022 0 0 127
-0.054226 -0.168142 0.669976 0 0 127
-0.053323 -0.169280 0.674506 0 0 127
-0.052319 -0.170143 0.677946 0 0 127
-0.051271 -0.170902 0.680971 0 0 127
-0.050142 -0.171426 0.683060 0 0 127
-0.048981 -0.171864 0.684806 0 0 127
-0.047716 -0.171950 0.685148 0 0 127
-0.046457 -0.172062 0.685591 0 0 127
-0.045183 -0.172125 0.685845 0 0 127
-0.043903 -0.172168 0.686015 0 0 127
-0.042619 -0.172199 0.686140 0 0 127
-0.041329 -0.172204 0.686159 0 0 127
-0.040040 -0.172214 0.686198 0 0 127
-0.038764 -0.172284 0.686479 0 0 127
-0.037485 -0.172345 0.686720 0 0 127
-0.036220 -0.172476 0.687244 0 0 127
-0.034949 -0.172589 0.687694 0 0 127
-0.033695 -0.172794 0.688510 0 0 127
-0.032416 -0.172887 0.688882 0 0 127
-0.031121 -0.172894 0.688910 0 0 127
-0.029822 -0.172879 0.688848 0 0 127
-0.028508 -0.172775 0.688435 0 0 127
-0.027197 -0.172679 0.688052 0 0 127
-0.025886 -0.172576 0.687642 0 0 127
-0.024575 -0.172459 0.687175 0 0 127
-0.023262 -0.172309 0.686578 0 0 127
-0.021943 -0.172098 0.685739 0 0 127
-0.020616 -0.171797 0.684536 0 0 127
-0.019285 -0.171424 0.683052 0 0 127
-0.017944 -0.170895 0.680941 0 0 127
-0.016432 -0.168530 0.671521 0 0 127
-0.014783 -0.164251 0.654471 0 0 127
-0.013407 -0.162510 0.647534 0 0 127
-0.012154 -0.162052 0.645709 0 0 127
-0.010922 -0.161811 0.644747 0 0 127
-0.009698 -0.161641 0.644069 0 0 127
-0.008482 -0.161553 0.643719 0 0 127
-0.007266 -0.161466 0.643372 0 0 127
-0.006053 -0.161402 0.643117 0 0 127
-0.004841 -0.161362 0.642959 0 0 127
-0.003630 -0.161324 0.642807 0 0 127
-0.002420 -0.161312 0.642761 0 0 127
-0.001210 -0.161280 0.642633 0 0 127
0.000000 -0.161359 0.642947 0 0 127
0.001211 -0.161478 0.643421 0 0 127
0.002424 -0.161610 0.643947 0 0 127
0.003640 -0.161796 0.644687 0 0 127
0.004862 -0.162075 0.645800 0 0 127
0.006089 -0.162361 0.646938 0 0 127
0.007322 -0.162701 0.648295 0 0 127
0.008561 -0.163058 0.649716 0 0 127
0.009798 -0.163300 0.650682 0 0 127
0.011029 -0.163396 0.651065 0 0 127
0.012241 -0.163218 0.650353 0 0 127
0.013426 -0.162744 0.648464 0 0 127
0.014591 -0.162122 0.645987 0 0 127
0.015757 -0.161606 0.643931 0 0 127
0.016937 -0.161302 0.642719 0 0 127
0.018128 -0.161136 0.642057 0 0 127
0.019323 -0.161023 0.641606 0 0 127
0.020525 -0.160978 0.641428 0 0 127
0.021749 -0.161104 0.641931 0 0 127
0.023013 -0.161492 0.643477 0 0 127
0.024355 -0.162370 0.646974 0 0 127
0.025834 -0.164027 0.653577 0 0 127
0.027370 -0.165881 0.660966 0 0 127
0.028837 -0.167174 0.666116 0 0 127
0.030233 -0.167962 0.669256 0 0 127
0.031556 -0.168297 0.670592 0 0 127
0.032859 -0.168507 0.671427 0 0 127
0.034131 -0.168550 0.671599 0 0 127
0.035408 -0.168609 0.671835 0 0 127
0.036673 -0.168611 0.671841 0 0 127
0.037938 -0.168613 0.671849 0 0 127
0.039187 -0.168548 0.671593 0 0 127
0.040418 -0.168407 0.671031 0 0 127
0.041606 -0.168105 0.669827 0 0 127
0.042732 -0.167577 0.667721 0 0 127
0.043846 -0.167032 0.665550 0 0 127
0.044984 -0.166609 0.663864 0 0 127
0.046138 -0.166264 0.662490 0 0 127
0.047303 -0.165975 0.661341 0 0 127
0.048488 -0.165770 0.660522 0 0 127
0.049671 -0.165571 0.659729 0 0 127
0.050879 -0.165460 0.659286 0 0 127
0.052082 -0.165339 0.658804 0 0 127
0.053301 -0.165274 0.658547 0 0 127
0.054531 -0.165245 0.658429 0 0 127
0.055767 -0.165235 0.658389 0 0 127
0.057022 -0.165280 0.658571 0 0 127
0.058287 -0.165352 0.658859 0 0 127
0.059566 -0.165462 0.659296 0 0 127
0.060846 -0.165566 0.659710 0 0 127
0.062143 -0.165714 0.660300 0 0 127
0.063437 -0.165848 0.660833 0 0 127
0.064725 -0.165961 0.661285 0 0 127
0.066016 -0.166078 0.661752 0 0 127
0.067330 -0.166246 0.662421 0 0 127
0.068663 -0.166455 0.663251 0 0 127
0.069920 -0.166477 0.663340 0 0 127
0.071131 -0.166388 0.662986 0 0 127
0.072288 -0.166178 0.662150 0 0 127
0.073444 -0.165975 0.661339 0 0 127
0.074616 -0.165813 0.660695 0 0 127
0.075810 -0.165705 0.660262 0 0 127
0.077025 -0.165645 0.660024 0 0 127
0.078258 -0.165625 0.659945 0 0 127
0.079515 -0.165657 0.660073 0 0 127
0.080790 -0.165723 0.660334 0 0 127
0.082065 -0.165789 0.660597 0 0 127
0.083365 -0.165900 0.661040 0 0 127
0.084689 -0.166056 0.661664 0 0 127
0.086006 -0.166195 0.662218 0 0 127
0.087339 -0.166359 0.662871 0 0 127
0.088720 -0.166610 0.663868 0 0 127
0.090013 -0.166691 0.664194 0 0 127
0.091201 -0.166578 0.663741 0 0 127
0.091961 -0.165696 0.660228 0 0 127
0.092960 -0.165263 0.658502 0 0 127
0.094104 -0.165095 0.657835 0 0 127
0.095303 -0.165028 0.657564 0 0 127
0.096488 -0.164936 0.657200 0 0 127
0.097712 -0.164915 0.657114 0 0 127
0.098950 -0.164917 0.657124 0 0 127
0.100193 -0.164926 0.657160 0 0 127
0.101437 -0.164939 0.657211 0 0 127
0.102661 -0.164917 0.657125 0 0 127
0.103893 -0.164909 0.657092 0 0 127
0.105094 -0.164854 0.656871 0 0 127
0.106307 -0.164817 0.656727 0 0 127
0.107538 -0.164809 0.656693 0 0 127
0.108780 -0.164818 0.656728 0 0 127
0.110008 -0.164806 0.656682 0 0 127
0.111273 -0.164849 0.656854 0 0 127
0.112459 -0.164775 0.656556 0 0 127
0.113678 -0.164751 0.656464 0 0 127
0.114901 -0.164733 0.656391 0 0 127
0.116144 -0.164744 0.656433 0 0 127
0.117391 -0.164759 0.656496 0 0 127
0.118645 -0.164784 0.656595 0 0 127
0.119892 -0.164801 0.656660 0 0 127
0.121210 -0.164912 0.657103 0 0 127
0.122495 -0.164977 0.657363 0 0 127
0.123833 -0.165111 0.657896 0 0 127
0.125157 -0.165223 0.658345 0 0 127
0.126534 -0.165404 0.659064 0 0 127
0.127936 -0.165613 0.659895 0 0 127
0.129301 -0.165771 0.660526 0 0 127
0.130655 -0.165911 0.661086 0 0 127
0.131856 -0.165857 0.660870 0 0 127
0.133004 -0.165737 0.660392 0 0 127
0.134187 -0.165663 0.660096 0 0 127
0.135373 -0.165594 0.659822 0 0 127
0.136544 -0.165508 0.659478 0 0 127
0.137741 -0.165454 0.659265 0 0 127
0.138895 -0.165351 0.658855 0 0 127
0.140076 -0.165281 0.658574 0 0 127
0.141238 -0.165190 0.658213 0 0 127
0.142388 -0.165087 0.657803 0 0 127
0.143541 -0.164990 0.657415 0 0 127
0.144658 -0.164853 0.656868 0 0 127
0.145715 -0.164650 0.656059 0 0 127
0.146835 -0.164520 0.655544 0 0 127
0.147973 -0.164415 0.655122 0 0 127
0.149142 -0.164344 0.654840 0 0 127
0.150300 -0.164262 0.654515 0 0 127
0.151487 -0.164214 0.654323 0 0 127
0.152687 -0.164180 0.654186 0 0 127
0.153890 -0.164149 0.654064 0 0 127
0.155061 -0.164085 0.653810 0 0 127
0.156187 -0.163976 0.653374 0 0 127
0.157278 -0.163831 0.652796 0 0 127
0.158425 -0.163746 0.652460 0 0 127
0.159475 -0.163564 0.651731 0 0 127
0.160463 -0.163321 0.650765 0 0 127
0.161443 -0.163074 0.649778 0 0 127
0.162423 -0.162830 0.648810 0 0 127
0.163465 -0.162652 0.648097 0 0 127
0.164536 -0.162505 0.647512 0 0 127
0.165613 -0.162366 0.646959 0 0 127
0.166803 -0.162339 0.646852 0 0 127
0.168078 -0.162394 0.647071 0 0 127
0.169450 -0.162542 0.647659 0 0 127
0.171044 -0.162899 0.649083 0 0 127
0.172893 -0.163492 0.651446 0 0 127
0.174867 -0.164194 0.654243 0 0 127
0.176740 -0.164793 0.656628 0 0 127
0.178504 -0.165281 0.658575 0 0 127
0.180181 -0.165684 0.660178 0 0 127
0.181937 -0.166152 0.662046 0 0 127
0.183620 -0.166549 0.663625 0 0 127
0.185335 -0.166969 0.665298 0 0 127
0.187003 -0.167340 0.666779 0 0 127
0.188958 -0.167962 0.669258 0 0 127
0.190873 -0.168541 0.671563 0 0 127
0.192817 -0.169138 0.673941 0 0 127
0.194615 -0.169599 0.675780 0 0 127
0.196416 -0.170057 0.677606 0 0 127
0.198072 -0.170384 0.678909 0 0 127
0.199678 -0.170665 0.680027 0 0 127
0.201307 -0.170961 0.681207 0 0 127
0.202886 -0.171212 0.682206 0 0 127
0.204452 -0.171448 0.683148 0 0 127
0.206084 -0.171737 0.684297 0 0 127
0.207702 -0.172010 0.685386 0 0 127
0.209333 -0.172290 0.686503 0 0 127
0.210884 -0.172502 0.687347 0 0 127
0.212430 -0.172707 0.688164 0 0 127
0.213956 -0.172894 0.688909 0 0 127
0.215542 -0.173126 0.689834 0 0 127
0.217132 -0.173359 0.690761 0 0 127
0.218726 -0.173592 0.691691 0 0 127
0.220314 -0.173818 0.692590 0 0 127
0.221897 -0.174037 0.693462 0 0 127
0.223563 -0.174318 0.694583 0 0 127
0.225251 -0.174613 0.695757 0 0 127
0.226944 -0.174909 0.696937 0 0 127
0.228653 -0.175213 0.698150 0 0 127
0.230311 -0.175475 0.699192 0 0 127
0.232078 -0.175817 0.700554 0 0 127
0.233852 -0.176160 0.701921 0 0 127
0.235702 -0.176556 0.703500 0 0 127
0.237581 -0.176969 0.705145 0 0 127
0.239570 -0.177459 0.707100 0 0 127
0.241620 -0.177989 0.709210 0 0 127
0.244887 -0.179404 0.714849 0 0 127
0.253090 -0.184401 0.734757 0 0 127
-0.121309 -0.190629 0.767247 0 0 127
-0.118458 -0.188391 0.758239 0 0 127
-0.116244 -0.187124 0.753140 0 0 127
-0.114444 -0.186502 0.750637 0 0 127
-0.112660 -0.185889 0.748170 0 0 127
-0.110928 -0.185349 0.745996 0 0 127
-0.109217 -0.184829 0.743905 0 0 127
-0.107495 -0.184276 0.741679 0 0 127
-0.105817 -0.183788 0.739712 0 0 127
-0.104158 -0.183318 0.737822 0 0 127
-0.102539 -0.182907 0.736167 0 0 127
-0.100877 -0.182407 0.734156 0 0 127
-0.099228 -0.181919 0.732190 0 0 127
-0.097590 -0.181434 0.730241 0 0 127
-0.095976 -0.180983 0.728423 0 0 127
-0.094405 -0.180601 0.726885 0 0 127
-0.092835 -0.180210 0.725311 0 0 127
-0.091267 -0.179809 0.723700 0 0 127
-0.089728 -0.179455 0.722275 0 0 127
-0.088157 -0.179026 0.720547 0 0 127
-0.086616 -0.178646 0.719018 0 0 127
-0.085148 -0.178404 0.718046 0 0 127
-0.083678 -0.178153 0.717033 0 0 127
-0.082201 -0.177877 0.715924 0 0 127
-0.080725 -0.177594 0.714785 0 0 127
-0.079222 -0.177242 0.713366 0 0 127
-0.077709 -0.176855 0.711810 0 0 127
-0.076189 -0.176437 0.710125 0 0 127
-0.074653 -0.175967 0.708237 0 0 127
-0.073120 -0.175487 0.706305 0 0 127
-0.071460 -0.174681 0.703060 0 0 127
-0.069307 -0.172614 0.694742 0 0 127
-0.066227 -0.168116 0.676635 0 0 127
-0.063558 -0.164503 0.662095 0 0 127
-0.061856 -0.163299 0.657249 0 0 127
-0.060452 -0.162851 0.655448 0 0 127
-0.059182 -0.162751 0.655045 0 0 127
-0.057969 -0.162806 0.655264 0 0 127
-0.056830 -0.163078 0.656358 0 0 127
-0.055701 -0.163389 0.657612 0 0 127
-0.054610 -0.163829 0.659381 0 0 127
-0.053563 -0.164426 0.661784 0 0 127
-0.052688 -0.165591 0.666475 0 0 127
-0.051778 -0.166700 0.670937 0 0 127
-0.050867 -0.167861 0.675611 0 0 127
-0.049796 -0.168540 0.678342 0 0 127
-0.048674 -0.169079 0.680512 0 0 127
-0.047433 -0.169221 0.681086 0 0 127
-0.046173 -0.169302 0.681412 0 0 127
-0.044906 -0.169360 0.681644 0 0 127
-0.043631 -0.169389 0.681762 0 0 127
-0.042353 -0.169412 0.681854 0 0 127
-0.041081 -0.169459 0.682042 0 0 127
-0.039816 -0.169539 0.682363 0 0 127
-0.038556 -0.169647 0.682800 0 0 127
-0.037288 -0.169724 0.683107 0 0 127
-0.036014 -0.169779 0.683330 0 0 127
-0.034749 -0.169883 0.683747 0 0 127
-0.033505 -0.170100 0.684623 0 0 127
-0.032242 -0.170236 0.685169 0 0 127
-0.030958 -0.170270 0.685305 0 0 127
-0.029668 -0.170267 0.685294 0 0 127
-0.028373 -0.170236 0.685170 0 0 127
-0.027069 -0.170148 0.684817 0 0 127
-0.025763 -0.170033 0.684352 0 0 127
-0.024455 -0.169898 0.683809 0 0 127
-0.023146 -0.169736 0.683156 0 0 127
-0.021828 -0.169492 0.682173 0 0 127
-0.020504 -0.169159 0.680835 0 0 127
-0.019156 -0.168575 0.678486 0 0 127
-0.017706 -0.166943 0.671916 0 0 127
-0.016045 -0.162920 0.655723 0 0 127
-0.014607 -0.160678 0.646702 0 0 127
-0.013348 -0.160179 0.644692 0 0 127
-0.012116 -0.159929 0.643685 0 0 127
-0.010893 -0.159771 0.643050 0 0 127
-0.009677 -0.159668 0.642636 0 0 127
-0.008462 -0.159573 0.642255 0 0 127
-0.007251 -0.159514 0.642015 0 0 127
-0.006040 -0.159455 0.641779 0 0 127
-0.004830 -0.159394 0.641533 0 0 127
-0.003621 -0.159345 0.641337 0 0 127
-0.002414 -0.159305 0.641175 0 0 127
-0.001206 -0.159239 0.640906 0 0 127
0.000000 -0.159277 0.641061 0 0 127
0.001207 -0.159320 0.641236 0 0 127
0.002415 -0.159405 0.641575 0 0 127
0.003625 -0.159517 0.642028 0 0 127
0.004838 -0.159670 0.642644 0 0 127
0.006055 -0.159846 0.643349 0 0 127
0.007273 -0.160002 0.643978 0 0 127
0.008496 -0.160219 0.644851 0 0 127
0.009724 -0.160446 0.645764 0 0 127
0.010942 -0.160477 0.645890 0 0 127
0.012144 -0.160304 0.645193 0 0 127
0.013325 -0.159902 0.643575 0 0 127
0.014493 -0.159424 0.641654 0 0 127
0.015667 -0.159077 0.640256 0 0 127
0.016848 -0.158849 0.639339 0 0 127
0.018035 -0.158707 0.638767 0 0 127
0.019228 -0.158635 0.638477 0 0 127
0.020415 -0.158515 0.637996 0 0 127
0.021622 -0.158560 0.638177 0 0 127
0.022859 -0.158813 0.639193 0 0 127
0.024167 -0.159499 0.641957 0 0 127
0.025659 -0.161288 0.649156 0 0 127
0.027274 -0.163641 0.658626 0 0 127
0.028814 -0.165368 0.665577 0 0 127
0.030212 -0.166165 0.668783 0 0 127
0.031538 -0.166519 0.670210 0 0 127
0.032837 -0.166713 0.670991 0 0 127
0.034115 -0.166783 0.671270 0 0 127
0.035387 -0.166823 0.671432 0 0 127
0.036648 -0.166811 0.671383 0 0 127
0.037904 -0.166779 0.671256 0 0 127
0.039147 -0.166690 0.670899 0 0 127
0.040382 -0.166575 0.670432 0 0 127
0.041567 -0.166266 0.669193 0 0 127
0.042685 -0.165717 0.666979 0 0 127
0.043789 -0.165146 0.664681 0 0 127
0.044923 -0.164718 0.662960 0 0 127
0.046089 -0.164426 0.661786 0 0 127
0.047254 -0.164144 0.660651 0 0 127
0.048440 -0.163949 0.659866 0 0 127
0.049634 -0.163792 0.659233 0 0 127
0.050843 -0.163689 0.658820 0 0 127
0.052049 -0.163583 0.658392 0 0 127
0.053280 -0.163558 0.658290 0 0 127
0.054502 -0.163506 0.658084 0 0 127
0.055734 -0.163485 0.658000 0 0 127
0.056985 -0.163523 0.658149 0 0 127
0.058237 -0.163559 0.658296 0 0 127
0.059507 -0.163645 0.658643 0 0 127
0.060768 -0.163702 0.658870 0 0 127
0.062054 -0.163822 0.659356 0 0 127
0.063337 -0.163930 0.659790 0 0 127
0.064607 -0.164003 0.660083 0 0 127
0.065902 -0.164134 0.660612 0 0 127
0.067171 -0.164196 0.660861 0 0 127
0.068443 -0.164264 0.661132 0 0 127
0.069692 -0.164273 0.661171 0 0 127
0.070914 -0.164221 0.660960 0 0 127
0.072110 -0.164112 0.660520 0 0 127
0.073289 -0.163968 0.659943 0 0 127
0.074478 -0.163851 0.659470 0 0 127
0.075691 -0.163791 0.659228 0 0 127
0.076926 -0.163779 0.659181 0 0 127
0.078174 -0.163794 0.659239 0 0 127
0.079462 -0.163891 0.659630 0 0 127
0.080757 -0.163998 0.660063 0 0 127
0.082051 -0.164103 0.660485 0 0 127
0.083354 -0.164220 0.660955 0 0 127
0.084680 -0.164378 0.661592 0 0 127
0.086024 -0.164568 0.662357 0 0 127
0.087378 -0.164770 0.663168 0 0 127
0.088747 -0.164994 0.664071 0 0 127
0.089989 -0.164979 0.664013 0 0 127
0.091101 -0.164730 0.663009 0 0 127
0.091894 -0.163920 0.659747 0 0 127
0.092936 -0.163567 0.658328 0 0 127
0.094058 -0.163363 0.657508 0 0 127
0.095276 -0.163330 0.657372 0 0 127
0.096442 -0.163210 0.656892 0 0 127
0.097673 -0.163201 0.656855 0 0 127
0.098923 -0.163224 0.656946 0 0 127
0.100160 -0.163224 0.656948 0 0 127
0.101399 -0.163228 0.656965 0 0 127
0.102640 -0.163235 0.656990 0 0 127
0.103861 -0.163210 0.656889 0 0 127
0.105076 -0.163177 0.656760 0 0 127
0.106284 -0.163133 0.656582 0 0 127
0.107520 -0.163134 0.656585 0 0 127
0.108767 -0.163150 0.656651 0 0 127
0.109997 -0.163142 0.656618 0 0 127
0.111252 -0.163170 0.656730 0 0 127
0.112459 -0.163128 0.656560 0 0 127
0.113681 -0.163107 0.656476 0 0 127
0.114908 -0.163095 0.656429 0 0 127
0.116164 -0.163124 0.656544 0 0 127
0.117431 -0.163167 0.656716 0 0 127
0.118691 -0.163200 0.656852 0 0 127
0.119941 -0.163218 0.656925 0 0 127
0.121222 -0.163278 0.657165 0 0 127
0.122504 -0.163339 0.657410 0 0 127
0.123829 -0.163454 0.657874 0 0 127
0.125152 -0.163565 0.658319 0 0 127
0.126530 -0.163745 0.659044 0 0 127
0.127895 -0.163904 0.659685 0 0 127
0.129246 -0.164043 0.660242 0 0 127
0.130567 -0.164141 0.660640 0 0 127
0.131731 -0.164042 0.660241 0 0 127
0.132883 -0.163930 0.659788 0 0 127
0.134021 -0.163804 0.659280 0 0 127
0.135209 -0.163739 0.659021 0 0 127
0.136346 -0.163615 0.658522 0 0 127
0.137527 -0.163546 0.658242 0 0 127
0.138667 -0.163429 0.657772 0 0 127
0.139798 -0.163304 0.657267 0 0 127
0.140918 -0.163168 0.656722 0 0 127
0.142051 -0.163050 0.656247 0 0 127
0.143174 -0.162922 0.655734 0 0 127
0.144270 -0.162766 0.655103 0 0 127
0.145310 -0.162550 0.654235 0 0 127
0.146407 -0.162401 0.653634 0 0 127
0.147535 -0.162288 0.653182 0 0 127
0.148674 -0.162190 0.652786 0 0 127
0.149812 -0.162092 0.652389 0 0 127
0.150968 -0.162014 0.652079 0 0 127
0.152142 -0.161958 0.651852 0 0 127
0.153315 -0.161900 0.651619 0 0 127
0.154465 -0.161820 0.651297 0 0 127
0.155566 -0.161691 0.650775 0 0 127
0.156661 -0.161556 0.650234 0 0 127
0.157766 -0.161435 0.649745 0 0 127
0.158826 -0.161269 0.649079 0 0 127
0.159819 -0.161039 0.648152 0 0 127
0.160809 -0.160809 0.647227 0 0 127
0.161796 -0.160580 0.646305 0 0 127
0.162830 -0.160400 0.645582 0 0 127
0.163864 -0.160223 0.644869 0 0 127
0.164954 -0.160102 0.644382 0 0 127
0.166097 -0.160035 0.644114 0 0 127
0.167316 -0.160041 0.644137 0 0 127
0.168627 -0.160135 0.644514 0 0 127
0.170042 -0.160326 0.645282 0 0 127
0.171601 -0.160648 0.646578 0 0 127
0.173317 -0.161111 0.648444 0 0 127
0.175070 -0.161603 0.650423 0 0 127
0.176852 -0.162114 0.652481 0 0 127
0.178530 -0.162524 0.654129 0 0 127
0.180338 -0.163045 0.656227 0 0 127
0.182065 -0.163487 0.658007 0 0 127
0.183879 -0.164000 0.660072 0 0 127
0.185757 -0.164564 0.662339 0 0 127
0.187931 -0.165379 0.665622 0 0 127
0.189990 -0.166084 0.668458 0 0 127
0.192044 -0.166775 0.671241 0 0 127
0.193934 -0.167316 0.673416 0 0 127
0.195767 -0.167800 0.675364 0 0 127
0.197480 -0.168176 0.676879 0 0 127
0.199140 -0.168503 0.678195 0 0 127
0.200826 -0.168847 0.679579 0 0 127
0.202443 -0.169129 0.680715 0 0 127
0.204103 -0.169444 0.681981 0 0 127
0.205766 -0.169757 0.683240 0 0 127
0.207411 -0.170051 0.684425 0 0 127
0.209068 -0.170352 0.685636 0 0 127
0.210669 -0.170603 0.686648 0 0 127
0.212250 -0.170835 0.687581 0 0 127
0.213802 -0.171042 0.688413 0 0 127
0.215415 -0.171294 0.689427 0 0 127
0.216975 -0.171501 0.690263 0 0 127
0.218575 -0.171738 0.691213 0 0 127
0.220145 -0.171947 0.692057 0 0 127
0.221741 -0.172175 0.692974 0 0 127
0.223430 -0.172472 0.694169 0 0 127
0.225114 -0.172762 0.695335 0 0 127
0.226804 -0.173053 0.696507 0 0 127
0.228508 -0.173351 0.697705 0 0 127
0.230209 -0.173643 0.698882 0 0 127
0.231949 -0.173962 0.700165 0 0 127
0.233725 -0.174304 0.701541 0 0 127
0.235614 -0.174725 0.703237 0 0 127
0.237495 -0.175136 0.704892 0 0 127
0.239373 -0.175540 0.706518 0 0 127
0.241328 -0.175996 0.708353 0 0 127
0.243724 -0.176767 0.711456 0 0 127
0.246980 -0.178150 0.717021 0 0 127
0.254335 -0.182458 0.734359 0 0 127
-0.120119 -0.186852 0.759720 0 0 127
-0.117795 -0.185444 0.753997 0 0 127
-0.115897 -0.184681 0.750894 0 0 127
-0.114192 -0.184211 0.748981 0 0 127
-0.112475 -0.183709 0.746941 0 0 127
-0.110764 -0.183204 0.744888 0 0 127
-0.109069 -0.182713 0.742892 0 0 127
-0.107349 -0.182168 0.740674 0 0 127
-0.105675 -0.181686 0.738716 0 0 127
-0.104020 -0.181227 0.736848 0 0 127
-0.102418 -0.180845 0.735298 0 0 127
-0.100785 -0.180400 0.733487 0 0 127
-0.099110 -0.179867 0.731318 0 0 127
-0.097462 -0.179366 0.729282 0 0 127
-0.095826 -0.178876 0.727288 0 0 127
-0.094265 -0.178511 0.725806 0 0 127
-0.092705 -0.178138 0.724290 0 0 127
-0.091134 -0.177735 0.722650 0 0 127
-0.089567 -0.177324 0.720979 0 0 127
-0.087980 -0.176862 0.719103 0 0 127
-0.086439 -0.176479 0.717546 0 0 127
-0.084957 -0.176207 0.716436 0 0 127
-0.083477 -0.175930 0.715311 0 0 127
-0.081982 -0.175611 0.714015 0 0 127
-0.080479 -0.175264 0.712606 0 0 127
-0.078939 -0.174826 0.710822 0 0 127
-0.077433 -0.174448 0.709286 0 0 127
-0.075909 -0.174015 0.707525 0 0 127
-0.074367 -0.173523 0.705523 0 0 127
-0.072789 -0.172928 0.703107 0 0 127
-0.070761 -0.171225 0.696182 0 0 127
-0.067652 -0.166790 0.678148 0 0 127
-0.064549 -0.162200 0.659486 0 0 127
-0.062707 -0.160662 0.653232 0 0 127
-0.061304 -0.160208 0.651386 0 0 127
-0.059988 -0.159969 0.650417 0 0 127
-0.058749 -0.159929 0.650252 0 0 127
-0.057568 -0.160048 0.650736 0 0 127
-0.056426 -0.160282 0.651688 0 0 127
-0.055277 -0.160507 0.652602 0 0 127
-0.054170 -0.160869 0.654077 0 0 127
-0.053062 -0.161243 0.655597 0 0 127
-0.052129 -0.162180 0.659407 0 0 127
-0.051234 -0.163282 0.663885 0 0 127
-0.050353 -0.164486 0.668783 0 0 127
-0.049365 -0.165394 0.672473 0 0 127
-0.048269 -0.165977 0.674845 0 0 127
-0.047058 -0.166185 0.675691 0 0 127
-0.045827 -0.166334 0.676295 0 0 127
-0.044577 -0.166420 0.676644 0 0 127
-0.043319 -0.166482 0.676898 0 0 127
-0.042063 -0.166552 0.677182 0 0 127
-0.040806 -0.166624 0.677475 0 0 127
-0.039566 -0.166771 0.678074 0 0 127
-0.038325 -0.166926 0.678703 0 0 127
-0.037074 -0.167044 0.679183 0 0 127
-0.035807 -0.167098 0.679401 0 0 127
-0.034543 -0.167173 0.679705 0 0 127
-0.033313 -0.167417 0.680701 0 0 127
-0.032068 -0.167610 0.681483 0 0 127
-0.030797 -0.167673 0.681739 0 0 127
-0.029521 -0.167714 0.681907 0 0 127
-0.028230 -0.167670 0.681728 0 0 127
-0.026929 -0.167559 0.681276 0 0 127
-0.025626 -0.167421 0.680715 0 0 127
-0.024320 -0.167251 0.680023 0 0 127
-0.023011 -0.167044 0.679182 0 0 127
-0.021695 -0.166754 0.678003 0 0 127
-0.020374 -0.166388 0.676514 0 0 127
-0.018959 -0.165152 0.671488 0 0 127
-0.017284 -0.161315 0.655888 0 0 127
-0.015824 -0.159056 0.646705 0 0 127
-0.014547 -0.158402 0.644045 0 0 127
-0.013313 -0.158143 0.642993 0 0 127
-0.012088 -0.157946 0.642189 0 0 127
-0.010871 -0.157831 0.641724 0 0 127
-0.009656 -0.157717 0.641262 0 0 127
-0.008444 -0.157624 0.640884 0 0 127
-0.007236 -0.157582 0.640709 0 0 127
-0.006028 -0.157529 0.640497 0 0 127
-0.004820 -0.157464 0.640233 0 0 127
-0.003614 -0.157389 0.639926 0 0 127
-0.002408 -0.157317 0.639634 0 0 127
-0.001203 -0.157223 0.639252 0 0 127
0.000000 -0.157218 0.639229 0 0 127
0.001203 -0.157228 0.639270 0 0 127
0.002407 -0.157233 0.639293 0 0 127
0.003611 -0.157277 0.639472 0 0 127
0.004816 -0.157338 0.639719 0 0 127
0.006023 -0.157394 0.639945 0 0 127
0.007229 -0.157430 0.640092 0 0 127
0.008436 -0.157472 0.640263 0 0 127
0.009644 -0.157519 0.640455 0 0 127
0.010850 -0.157533 0.640510 0 0 127
0.012047 -0.157415 0.640031 0 0 127
0.013229 -0.157145 0.638934 0 0 127
0.014408 -0.156888 0.637889 0 0 127
0.015589 -0.156685 0.637065 0 0 127
0.016772 -0.156540 0.636476 0 0 127
0.017958 -0.156435 0.636048 0 0 127
0.019145 -0.156348 0.635695 0 0 127
0.020329 -0.156252 0.635305 0 0 127
0.021520 -0.156219 0.635170 0 0 127
0.022734 -0.156346 0.635686 0 0 127
0.024005 -0.156830 0.637654 0 0 127
0.025412 -0.158118 0.642889 0 0 127
0.027094 -0.160923 0.654294 0 0 127
0.028743 -0.163291 0.663923 0 0 127
0.030166 -0.164239 0.667779 0 0 127
0.031506 -0.164673 0.669542 0 0 127
0.032805 -0.164864 0.670321 0 0 127
0.034087 -0.164963 0.670722 0 0 127
0.035354 -0.164985 0.670810 0 0 127
0.036612 -0.164962 0.670719 0 0 127
0.037868 -0.164935 0.670605 0 0 127
0.039103 -0.164821 0.670142 0 0 127
0.040341 -0.164725 0.669753 0 0 127
0.041514 -0.164377 0.668340 0 0 127
0.042609 -0.163751 0.665794 0 0 127
0.043702 -0.163155 0.663371 0 0 127
0.044858 -0.162817 0.661995 0 0 127
0.046033 -0.162568 0.660984 0 0 127
0.047213 -0.162348 0.660088 0 0 127
0.048410 -0.162195 0.659465 0 0 127
0.049617 -0.162081 0.659002 0 0 127
0.050833 -0.162003 0.658688 0 0 127
0.052039 -0.161899 0.658261 0 0 127
0.053263 -0.161854 0.658082 0 0 127
0.054487 -0.161811 0.657905 0 0 127
0.055722 -0.161799 0.657857 0 0 127
0.056971 -0.161832 0.657991 0 0 127
0.058214 -0.161844 0.658041 0 0 127
0.059476 -0.161906 0.658290 0 0 127
0.060729 -0.161945 0.658449 0 0 127
0.062008 -0.162049 0.658872 0 0 127
0.063270 -0.162105 0.659100 0 0 127
0.064539 -0.162175 0.659386 0 0 127
0.065822 -0.162278 0.659805 0 0 127
0.067074 -0.162302 0.659904 0 0 127
0.068310 -0.162287 0.659843 0 0 127
0.069540 -0.162260 0.659731 0 0 127
0.070765 -0.162222 0.659577 0 0 127
0.071979 -0.162159 0.659322 0 0 127
0.073181 -0.162072 0.658968 0 0 127
0.074393 -0.162011 0.658718 0 0 127
0.075627 -0.162000 0.658673 0 0 127
0.076885 -0.162038 0.658827 0 0 127
0.078161 -0.162112 0.659131 0 0 127
0.079440 -0.162190 0.659446 0 0 127
0.080759 -0.162347 0.660086 0 0 127
0.082061 -0.162464 0.660562 0 0 127
0.083367 -0.162586 0.661057 0 0 127
0.084701 -0.162759 0.661758 0 0 127
0.086053 -0.162961 0.662582 0 0 127
0.087398 -0.163143 0.663321 0 0 127
0.088733 -0.163302 0.663967 0 0 127
0.089962 -0.163265 0.663816 0 0 127
0.090961 -0.162816 0.661993 0 0 127
0.091833 -0.162155 0.659304 0 0 127
0.092914 -0.161878 0.658176 0 0 127
0.094045 -0.161691 0.657420 0 0 127
0.095238 -0.161616 0.657112 0 0 127
0.096410 -0.161507 0.656669 0 0 127
0.097635 -0.161489 0.656595 0 0 127
0.098887 -0.161515 0.656701 0 0 127
0.100139 -0.161540 0.656806 0 0 127
0.101388 -0.161561 0.656890 0 0 127
0.102624 -0.161561 0.656888 0 0 127
0.103846 -0.161539 0.656799 0 0 127
0.105056 -0.161498 0.656635 0 0 127
0.106282 -0.161483 0.656572 0 0 127
0.107513 -0.161476 0.656544 0 0 127
0.108752 -0.161480 0.656558 0 0 127
0.109980 -0.161468 0.656512 0 0 127
0.111246 -0.161513 0.656694 0 0 127
0.112471 -0.161497 0.656629 0 0 127
0.113705 -0.161494 0.656616 0 0 127
0.114943 -0.161497 0.656630 0 0 127
0.116218 -0.161551 0.656850 0 0 127
0.117466 -0.161568 0.656917 0 0 127
0.118737 -0.161615 0.657108 0 0 127
0.119983 -0.161627 0.657158 0 0 127
0.121272 -0.161696 0.657438 0 0 127
0.122552 -0.161752 0.657666 0 0 127
0.123857 -0.161840 0.658025 0 0 127
0.125162 -0.161925 0.658370 0 0 127
0.126514 -0.162070 0.658958 0 0 127
0.127872 -0.162220 0.659567 0 0 127
0.129194 -0.162321 0.659979 0 0 127
0.130490 -0.162387 0.660249 0 0 127
0.131624 -0.162253 0.659704 0 0 127
0.132753 -0.162115 0.659144 0 0 127
0.133900 -0.162002 0.658682 0 0 127
0.135074 -0.161924 0.658365 0 0 127
0.136202 -0.161791 0.657824 0 0 127
0.137353 -0.161688 0.657407 0 0 127
0.138467 -0.161545 0.656823 0 0 127
0.139584 -0.161407 0.656264 0 0 127
0.140681 -0.161248 0.655617 0 0 127
0.141786 -0.161102 0.655022 0 0 127
0.142862 -0.160925 0.654304 0 0 127
0.143934 -0.160747 0.653578 0 0 127
0.144937 -0.160496 0.652558 0 0 127
0.146036 -0.160354 0.651980 0 0 127
0.147145 -0.160224 0.651455 0 0 127
0.148260 -0.160104 0.650966 0 0 127
0.149367 -0.159978 0.650451 0 0 127
0.150513 -0.159894 0.650112 0 0 127
0.151668 -0.159822 0.649819 0 0 127
0.152807 -0.159734 0.649462 0 0 127
0.153937 -0.159638 0.649071 0 0 127
0.155029 -0.159505 0.648531 0 0 127
0.156112 -0.159364 0.647956 0 0 127
0.157210 -0.159241 0.647455 0 0 127
0.158242 -0.159053 0.646694 0 0 127
0.159263 -0.158858 0.645900 0 0 127
0.160250 -0.158631 0.644975 0 0 127
0.161275 -0.158446 0.644223 0 0 127
0.162276 -0.158239 0.643382 0 0 127
0.163322 -0.158080 0.642736 0 0 127
0.164377 -0.157930 0.642128 0 0 127
0.165503 -0.157852 0.641809 0 0 127
0.166663 -0.157806 0.641622 0 0 127
0.167921 -0.157854 0.641815 0 0 127
0.169235 -0.157952 0.642217 0 0 127
0.170602 -0.158100 0.642815 0 0 127
0.172066 -0.158333 0.643764 0 0 127
0.173565 -0.158596 0.644832 0 0 127
0.175150 -0.158932 0.646202 0 0 127
0.176813 -0.159335 0.647838 0 0 127
0.178646 -0.159884 0.650070 0 0 127
0.180422 -0.160375 0.652068 0 0 127
0.182319 -0.160966 0.654470 0 0 127
0.184222 -0.161554 0.656863 0 0 127
0.186615 -0.162562 0.660961 0 0 127
0.188896 -0.163460 0.664608 0 0 127
0.191019 -0.164210 0.667658 0 0 127
0.193018 -0.164843 0.670235 0 0 127
0.194918 -0.165385 0.672436 0 0 127
0.196679 -0.165803 0.674135 0 0 127
0.198410 -0.166189 0.675708 0 0 127
0.200154 -0.166582 0.677305 0 0 127
0.201858 -0.166938 0.678751 0 0 127
0.203598 -0.167318 0.680296 0 0 127
0.205291 -0.167654 0.681664 0 0 127
0.206978 -0.167982 0.682998 0 0 127
0.208709 -0.168341 0.684456 0 0 127
0.210351 -0.168625 0.685611 0 0 127
0.212011 -0.168919 0.686807 0 0 127
0.213623 -0.169173 0.687837 0 0 127
0.215238 -0.169424 0.688861 0 0 127
0.216813 -0.169642 0.689745 0 0 127
0.218423 -0.169884 0.690731 0 0 127
0.220006 -0.170103 0.691620 0 0 127
0.221617 -0.170341 0.692586 0 0 127
0.223288 -0.170622 0.693728 0 0 127
0.224957 -0.170897 0.694850 0 0 127
0.226637 -0.171179 0.695993 0 0 127
0.228391 -0.171512 0.697348 0 0 127
0.230111 -0.171816 0.698585 0 0 127
0.231818 -0.172108 0.699770 0 0 127
0.233628 -0.172471 0.701250 0 0 127
0.235519 -0.172890 0.702952 0 0 127
0.237382 -0.173285 0.704557 0 0 127
0.239244 -0.173674 0.706138 0 0 127
0.241074 -0.174035 0.707608 0 0 127
0.243254 -0.174644 0.710082 0 0 127
0.245589 -0.175357 0.712982 0 0 127
0.249280 -0.177025 0.719765 0 0 127
-0.120593 -0.183490 0.753742 0 0 127
-0.118776 -0.182877 0.751224 0 0 127
-0.117097 -0.182464 0.749529 0 0 127
-0.115469 -0.182122 0.748123 0 0 127
-0.113865 -0.181809 0.746834 0 0 127
-0.112220 -0.181422 0.745248 0 0 127
-0.110543 -0.180973 0.743401 0 0 127
-0.108858 -0.180499 0.741455 0 0 127
-0.107136 -0.179951 0.739203 0 0 127
-0.105439 -0.179432 0.737072 0 0 127
-0.103786 -0.178973 0.735187 0 0 127
-0.102171 -0.178569 0.733529 0 0 127
-0.100558 -0.178158 0.731840 0 0 127
-0.098923 -0.177695 0.729939 0 0 127
-0.097287 -0.177218 0.727975 0 0 127
-0.095675 -0.176771 0.726140 0 0 127
-0.094093 -0.176367 0.724482 0 0 127
-0.092518 -0.175965 0.722829 0 0 127
-0.090937 -0.175540 0.721084 0 0 127
-0.089340 -0.175071 0.719156 0 0 127
-0.087751 -0.174602 0.717233 0 0 127
-0.086207 -0.174210 0.715621 0 0 127
-0.084734 -0.173950 0.714554 0 0 127
-0.083240 -0.173641 0.713283 0 0 127
-0.081714 -0.173250 0.711679 0 0 127
-0.080181 -0.172835 0.709974 0 0 127
-0.078643 -0.172391 0.708151 0 0 127
-0.077133 -0.171999 0.706537 0 0 127
-0.075607 -0.171552 0.704703 0 0 127
-0.074049 -0.171017 0.702505 0 0 127
-0.072334 -0.170095 0.698719 0 0 127
-0.069497 -0.166450 0.683744 0 0 127
-0.065979 -0.161006 0.661382 0 0 127
-0.063737 -0.158526 0.651196 0 0 127
-0.062292 -0.157969 0.648907 0 0 127
-0.060956 -0.157672 0.647684 0 0 127
-0.059666 -0.157487 0.646925 0 0 127
-0.058434 -0.157448 0.646765 0 0 127
-0.057247 -0.157530 0.647104 0 0 127
-0.056105 -0.157745 0.647987 0 0 127
-0.054954 -0.157941 0.648793 0 0 127
-0.053821 -0.158202 0.649864 0 0 127
-0.052714 -0.158552 0.651299 0 0 127
-0.051714 -0.159247 0.654158 0 0 127
-0.050746 -0.160076 0.657562 0 0 127
-0.049793 -0.160997 0.661343 0 0 127
-0.048848 -0.161991 0.665429 0 0 127
-0.047791 -0.162658 0.668169 0 0 127
-0.046602 -0.162897 0.669150 0 0 127
-0.045389 -0.163064 0.669837 0 0 127
-0.044143 -0.163119 0.670062 0 0 127
-0.042901 -0.163190 0.670354 0 0 127
-0.041678 -0.163345 0.670991 0 0 127
-0.040487 -0.163635 0.672180 0 0 127
-0.039274 -0.163854 0.673080 0 0 127
-0.038071 -0.164128 0.674208 0 0 127
-0.036840 -0.164296 0.674895 0 0 127
-0.035596 -0.164421 0.675411 0 0 127
-0.034354 -0.164559 0.675975 0 0 127
-0.033131 -0.164806 0.676992 0 0 127
-0.031893 -0.164991 0.677751 0 0 127
-0.030636 -0.165092 0.678167 0 0 127
-0.029365 -0.165126 0.678304 0 0 127
-0.028082 -0.165086 0.678139 0 0 127
-0.026785 -0.164962 0.677633 0 0 127
-0.025491 -0.164844 0.677146 0 0 127
-0.024190 -0.164661 0.676397 0 0 127
-0.022876 -0.164371 0.675204 0 0 127
-0.021561 -0.164031 0.673809 0 0 127
-0.020233 -0.163547 0.671817 0 0 127
-0.018684 -0.161101 0.661770 0 0 127
-0.017047 -0.157483 0.646912 0 0 127
-0.015752 -0.156715 0.643755 0 0 127
-0.014506 -0.156345 0.642234 0 0 127
-0.013279 -0.156123 0.641324 0 0 127
-0.012064 -0.156028 0.640931 0 0 127
-0.010848 -0.155884 0.640342 0 0 127
-0.009636 -0.155782 0.639921 0 0 127
-0.008427 -0.155706 0.639609 0 0 127
-0.007221 -0.155644 0.639356 0 0 127
-0.006014 -0.155575 0.639072 0 0 127
-0.004809 -0.155499 0.638760 0 0 127
-0.003605 -0.155422 0.638441 0 0 127
-0.002402 -0.155331 0.638068 0 0 127
-0.001200 -0.155198 0.637525 0 0 127
0.000000 -0.155146 0.637311 0 0 127
0.001199 -0.155126 0.637229 0 0 127
0.002398 -0.155095 0.637100 0 0 127
0.003597 -0.155077 0.637026 0 0 127
0.004795 -0.155054 0.636932 0 0 127
0.005994 -0.155040 0.636874 0 0 127
0.007192 -0.155037 0.636860 0 0 127
0.008391 -0.155031 0.636836 0 0 127
0.009587 -0.154988 0.636662 0 0 127
0.010784 -0.154966 0.636571 0 0 127
0.011978 -0.154912 0.636349 0 0 127
0.013166 -0.154795 0.635869 0 0 127
0.014352 -0.154682 0.635405 0 0 127
0.015537 -0.154576 0.634969 0 0 127
0.016717 -0.154431 0.634373 0 0 127
0.017896 -0.154299 0.633832 0 0 127
0.019079 -0.154223 0.633518 0 0 127
0.020257 -0.154110 0.633055 0 0 127
0.021442 -0.154068 0.632880 0 0 127
0.022641 -0.154118 0.633085 0 0 127
0.023870 -0.154357 0.634068 0 0 127
0.025152 -0.154904 0.636317 0 0 127
0.026659 -0.156724 0.643790 0 0 127
0.028473 -0.160112 0.657708 0 0 127
0.030067 -0.162029 0.665582 0 0 127
0.031452 -0.162709 0.668379 0 0 127
0.032766 -0.162991 0.669534 0 0 127
0.034041 -0.163061 0.669821 0 0 127
0.035304 -0.163072 0.669867 0 0 127
0.036569 -0.163088 0.669935 0 0 127
0.037810 -0.163005 0.669592 0 0 127
0.039049 -0.162912 0.669211 0 0 127
0.040243 -0.162648 0.668124 0 0 127
0.041324 -0.161956 0.665283 0 0 127
0.042368 -0.161164 0.662030 0 0 127
0.043563 -0.160975 0.661255 0 0 127
0.044755 -0.160786 0.660477 0 0 127
0.045967 -0.160678 0.660036 0 0 127
0.047167 -0.160534 0.659441 0 0 127
0.048384 -0.160452 0.659105 0 0 127
0.049609 -0.160402 0.658900 0 0 127
0.050830 -0.160341 0.658649 0 0 127
0.052036 -0.160237 0.658222 0 0 127
0.053265 -0.160207 0.658101 0 0 127
0.054495 -0.160183 0.658002 0 0 127
0.055731 -0.160176 0.657970 0 0 127
0.056974 -0.160188 0.658022 0 0 127
0.058216 -0.160196 0.658054 0 0 127
0.059469 -0.160235 0.658216 0 0 127
0.060715 -0.160255 0.658298 0 0 127
0.061989 -0.160345 0.658668 0 0 127
0.063248 -0.160394 0.658868 0 0 127
0.064505 -0.160436 0.659039 0 0 127
0.065763 -0.160477 0.659209 0 0 127
0.067016 -0.160508 0.659335 0 0 127
0.068238 -0.160463 0.659151 0 0 127
0.069461 -0.160421 0.658978 0 0 127
0.070682 -0.160378 0.658800 0 0 127
0.071896 -0.160320 0.658563 0 0 127
0.073109 -0.160262 0.658326 0 0 127
0.074350 -0.160266 0.658341 0 0 127
0.075605 -0.160298 0.658475 0 0 127
0.076873 -0.160358 0.658720 0 0 127
0.078147 -0.160428 0.659007 0 0 127
0.079443 -0.160541 0.659473 0 0 127
0.080773 -0.160718 0.660197 0 0 127
0.082081 -0.160846 0.660724 0 0 127
0.083394 -0.160979 0.661269 0 0 127
0.084717 -0.161128 0.661883 0 0 127
0.086072 -0.161333 0.662724 0 0 127
0.087384 -0.161452 0.663215 0 0 127
0.088668 -0.161517 0.663481 0 0 127
0.089893 -0.161474 0.663302 0 0 127
0.090838 -0.160936 0.661096 0 0 127
0.091780 -0.160409 0.658930 0 0 127
0.092876 -0.160160 0.657905 0 0 127
0.094024 -0.160005 0.657269 0 0 127
0.095214 -0.159927 0.656950 0 0 127
0.096404 -0.159850 0.656631 0 0 127
0.097626 -0.159827 0.656539 0 0 127
0.098871 -0.159842 0.656601 0 0 127
0.100123 -0.159868 0.656705 0 0 127
0.101377 -0.159895 0.656816 0 0 127
0.102614 -0.159897 0.656825 0 0 127
0.103835 -0.159873 0.656728 0 0 127
0.105043 -0.159830 0.656550 0 0 127
0.106274 -0.159824 0.656525 0 0 127
0.107507 -0.159819 0.656504 0 0 127
0.108752 -0.159833 0.656562 0 0 127
0.109984 -0.159827 0.656537 0 0 127
0.111268 -0.159896 0.656821 0 0 127
0.112480 -0.159861 0.656679 0 0 127
0.113727 -0.159877 0.656744 0 0 127
0.114982 -0.159903 0.656852 0 0 127
0.116269 -0.159973 0.657138 0 0 127
0.117522 -0.159996 0.657231 0 0 127
0.118787 -0.160032 0.657382 0 0 127
0.120019 -0.160025 0.657353 0 0 127
0.121303 -0.160087 0.657605 0 0 127
0.122575 -0.160132 0.657792 0 0 127
0.123872 -0.160208 0.658104 0 0 127
0.125185 -0.160303 0.658493 0 0 127
0.126505 -0.160405 0.658913 0 0 127
0.127851 -0.160538 0.659459 0 0 127
0.129173 -0.160638 0.659872 0 0 127
0.130425 -0.160651 0.659923 0 0 127
0.131526 -0.160479 0.659215 0 0 127
0.132652 -0.160340 0.658644 0 0 127
0.133800 -0.160230 0.658193 0 0 127
0.134965 -0.160142 0.657833 0 0 127
0.136062 -0.159976 0.657149 0 0 127
0.137196 -0.159855 0.656655 0 0 127
0.138308 -0.159713 0.656070 0 0 127
0.139408 -0.159558 0.655434 0 0 127
0.140492 -0.159388 0.654736 0 0 127
0.141538 -0.159179 0.653878 0 0 127
0.142567 -0.158954 0.652952 0 0 127
0.143624 -0.158764 0.652172 0 0 127
0.144631 -0.158522 0.651179 0 0 127
0.145726 -0.158380 0.650596 0 0 127
0.146795 -0.158213 0.649907 0 0 127
0.147868 -0.158052 0.649245 0 0 127
0.148967 -0.157921 0.648711 0 0 127
0.150090 -0.157819 0.648288 0 0 127
0.151198 -0.157701 0.647806 0 0 127
0.152345 -0.157626 0.647499 0 0 127
0.153453 -0.157512 0.647030 0 0 127
0.154501 -0.157340 0.646321 0 0 127
0.155574 -0.157195 0.645726 0 0 127
0.156673 -0.157078 0.645245 0 0 127
0.157720 -0.156911 0.644561 0 0 127
0.158744 -0.156725 0.643795 0 0 127
0.159754 -0.156527 0.642982 0 0 127
0.160788 -0.156355 0.642276 0 0 127
0.161795 -0.156160 0.641474 0 0 127
0.162832 -0.155997 0.640806 0 0 127
0.163854 -0.155822 0.640087 0 0 127
0.164931 -0.155701 0.639590 0 0 127
0.166063 -0.155634 0.639314 0 0 127
0.167277 -0.155643 0.639353 0 0 127
0.168548 -0.155706 0.639611 0 0 127
0.169843 -0.155789 0.639953 0 0 127
0.171177 -0.155908 0.640438 0 0 127
0.172548 -0.156057 0.641052 0 0 127
0.174049 -0.156322 0.642141 0 0 127
0.175568 -0.156598 0.643275 0 0 127
0.177290 -0.157051 0.645137 0 0 127
0.179042 -0.157525 0.647081 0 0 127
0.180879 -0.158065 0.649301 0 0 127
0.182788 -0.158661 0.651749 0 0 127
0.185118 -0.159613 0.655658 0 0 127
0.187500 -0.160596 0.659697 0 0 127
0.189754 -0.161457 0.663235 0 0 127
0.191785 -0.162119 0.665955 0 0 127
0.193734 -0.162703 0.668354 0 0 127
0.195508 -0.163134 0.670121 0 0 127
0.197339 -0.163606 0.672062 0 0 127
0.199211 -0.164106 0.674116 0 0 127
0.201009 -0.164539 0.675896 0 0 127
0.202772 -0.164938 0.677533 0 0 127
0.204598 -0.165383 0.679361 0 0 127
0.206357 -0.165769 0.680947 0 0 127
0.208188 -0.166208 0.682749 0 0 127
0.209961 -0.166595 0.684340 0 0 127
0.211689 -0.166941 0.685763 0 0 127
0.213387 -0.167261 0.687074 0 0 127
0.215040 -0.167541 0.688226 0 0 127
0.216615 -0.167758 0.689117 0 0 127
0.218220 -0.167995 0.690091 0 0 127
0.219791 -0.168203 0.690947 0 0 127
0.221425 -0.168457 0.691989 0 0 127
0.223068 -0.168714 0.693045 0 0 127
0.224742 -0.168992 0.694185 0 0 127
0.226420 -0.169270 0.695328 0 0 127
0.228185 -0.169609 0.696720 0 0 127
0.229880 -0.169893 0.697886 0 0 127
0.231624 -0.170208 0.699183 0 0 127
0.233431 -0.170567 0.700656 0 0 127
0.235317 -0.170979 0.702351 0 0 127
0.237196 -0.171382 0.704003 0 0 127
0.239065 -0.171773 0.705609 0 0 127
0.240809 -0.172070 0.706829 0 0 127
0.242844 -0.172570 0.708885 0 0 127
0.245167 -0.173269 0.711756 0 0 127
0.248143 -0.174419 0.716480 0 0 127
-0.121909 -0.181446 0.753110 0 0 127
